# .PCD v0.7 - Point Cloud Data file format
VERSION 0.7
FIELDS x y z rgb
SIZE 4 4 4 4
TYPE F F F F
COUNT 1 1 1 1
WIDTH 1001
HEIGHT 1
VIEWPOINT 0 0 0 1 0 0 0
POINTS 1001
DATA ascii
0.01593619 -0.21046762 0.57700002 1.5675463e-38
0.017005716 -0.21010287 0.57600003 1.5675463e-38
0.018102858 -0.21010287 0.57600003 1.5675111e-38
0.019133333 -0.20937333 0.574 1.5859502e-38
0.020226667 -0.20937333 0.574 1.5951687e-38
0.021282857 -0.20900857 0.57300001 1.5951687e-38
0.022374285 -0.20900857 0.57300001 1.5768011e-38
0.023424761 -0.20864381 0.57200003 1.6321185e-38
0.024514288 -0.20864381 0.57200003 1.6597423e-38
0.025559049 -0.20827906 0.57100004 1.6505228e-38
0.026646668 -0.20827906 0.57100004 1.6045324e-38
0.027734287 -0.20827906 0.57100004 1.6414107e-38
0.02877143 -0.20791429 0.57000005 1.6597419e-38
0.029857146 -0.20791429 0.57000005 1.6597419e-38
0.030942859 -0.20791429 0.57000005 1.6781461e-38
0.032028574 -0.20791429 0.57000005 1.6965853e-38
0.03317238 -0.20827906 0.57100004 1.6966557e-38
0.034260001 -0.20827906 0.57100004 1.6966557e-38
0.035347622 -0.20827906 0.57100004 1.7057683e-38
0.036435243 -0.20827906 0.57100004 1.7057683e-38
0.03752286 -0.20827906 0.57100004 1.7149881e-38
0.038542863 -0.20791429 0.57000005 1.7426468e-38
0.039628576 -0.20791429 0.57000005 1.742718e-38
0.04071429 -0.20791429 0.57000005 1.7703767e-38
0.041873336 -0.20827906 0.57100004 1.7334984e-38
0.042960957 -0.20827906 0.57100004 1.742718e-38
0.044048574 -0.20827906 0.57100004 1.7427184e-38
0.045136191 -0.20827906 0.57100004 1.7427184e-38
0.046223812 -0.20827906 0.57100004 1.7334988e-38
0.047394291 -0.20864381 0.57200003 1.751938e-38
0.04839905 -0.20827906 0.57100004 1.751938e-38
0.049486667 -0.20827906 0.57100004 1.751938e-38
0.050574288 -0.20827906 0.57100004 1.7611219e-38
0.051752385 -0.20864381 0.57200003 1.7611219e-38
0.052841906 -0.20864381 0.57200003 1.7519375e-38
0.05393143 -0.20864381 0.57200003 1.7519375e-38
0.055117141 -0.20900857 0.57300001 1.7611219e-38
0.056208573 -0.20900857 0.57300001 1.7611219e-38
0.057300001 -0.20900857 0.57300001 1.7519375e-38
0.058391429 -0.20900857 0.57300001 1.7519375e-38
0.059482858 -0.20900857 0.57300001 1.7703767e-38
0.060574286 -0.20900857 0.57300001 1.7703767e-38
0.061665714 -0.20900857 0.57300001 1.7334632e-38
0.062866665 -0.20937333 0.574 1.7519024e-38
0.063959993 -0.20937333 0.574 1.7519024e-38
0.065053329 -0.20937333 0.574 1.7426828e-38
0.066146672 -0.20937333 0.574 1.7334988e-38
0.067357145 -0.20973812 0.57500005 1.7427184e-38
0.068452388 -0.20973812 0.57500005 1.7334984e-38
0.070031434 -0.21119715 0.57900006 1.742718e-38
0.071257152 -0.21156192 0.58000004 1.7426465e-38
0.072486676 -0.21192667 0.58100003 1.7242074e-38
0.073593333 -0.21192667 0.58100003 1.7150949e-38
0.074828573 -0.21229143 0.58200002 1.7243144e-38
0.075937144 -0.21229143 0.58200002 1.7058401e-38
0.077178098 -0.21265619 0.583 1.7058401e-38
0.07828857 -0.21265619 0.583 1.6966206e-38
0.079671435 -0.21338572 0.58500004 1.6966206e-38
0.080923811 -0.21375048 0.58600003 1.6689263e-38
0.082180001 -0.21411523 0.58700001 1.6689263e-38
0.084007621 -0.21593906 0.59200001 1.6505228e-38
0.085279055 -0.21630383 0.59300005 1.6320836e-38
0.086554289 -0.21666858 0.59400004 1.6413032e-38
0.087833337 -0.21703334 0.59500003 1.6228641e-38
0.089265719 -0.21776286 0.597 1.5216282e-38
0.09055429 -0.21812762 0.59800005 1.5585065e-38
0.091693342 -0.21812762 0.59800005 1.6506672e-38
-0.0085857147 -0.21807714 0.60100001 1.8164379e-38
-0.0074285716 -0.21771429 0.60000002 1.3646793e-38
-0.0062647625 -0.21698858 0.59800005 1.3463124e-38
-0.005117143 -0.21662571 0.597 1.4477275e-38
-0.0039733332 -0.21626286 0.59600002 1.4568749e-38
-0.0028285717 -0.21553715 0.59400004 1.4845336e-38
-0.0016942859 -0.2151743 0.59300005 1.4661661e-38
-0.00056380953 -0.21481143 0.59200001 1.4846052e-38
0.00056285714 -0.21444857 0.59100002 1.4661311e-38
0.0016828573 -0.21372287 0.58900005 1.4661311e-38
0.0028000001 -0.21336 0.588 1.4937538e-38
0.0039066668 -0.2126343 0.58600003 1.4937538e-38
0.0050142859 -0.21227144 0.58500004 1.4845353e-38
0.0061180959 -0.21190858 0.58400005 1.4937549e-38
0.0072304765 -0.21190858 0.58400005 1.4845353e-38
0.008328571 -0.21154571 0.583 1.5029744e-38
0.0094228573 -0.21118286 0.58200002 1.5029744e-38
0.010513334 -0.21082 0.58100003 1.5398527e-38
0.011600001 -0.21045715 0.58000004 1.5490709e-38
0.012682858 -0.2100943 0.57900006 1.5490709e-38
0.013761904 -0.20973143 0.57800001 1.5582907e-38
0.014862857 -0.20973143 0.57800001 1.5859494e-38
0.01593619 -0.20936857 0.57700002 1.5768014e-38
0.017035238 -0.20936857 0.57700002 1.5768014e-38
0.018102858 -0.20900571 0.57600003 1.5675111e-38
0.019200001 -0.20900571 0.57600003 1.5859502e-38
0.020226667 -0.20828 0.574 1.6136078e-38
0.02132 -0.20828 0.574 1.6228274e-38
0.022374285 -0.20791714 0.57300001 1.6136075e-38
0.023465713 -0.20791714 0.57300001 1.6412662e-38
0.024557142 -0.20791714 0.57300001 1.6413381e-38
0.02560381 -0.2075543 0.57200003 1.6505577e-38
0.026693335 -0.2075543 0.57200003 1.6413028e-38
0.027782857 -0.2075543 0.57200003 1.6689615e-38
0.028821906 -0.20719144 0.57100004 1.6689615e-38
0.029909525 -0.20719144 0.57100004 1.6689615e-38
0.030997144 -0.20719144 0.57100004 1.6781464e-38
0.032084763 -0.20719144 0.57100004 1.7058051e-38
0.03317238 -0.20719144 0.57100004 1.6965839e-38
0.034260001 -0.20719144 0.57100004 1.715023e-38
0.035347622 -0.20719144 0.57100004 1.7057683e-38
0.036435243 -0.20719144 0.57100004 1.6965487e-38
0.037588574 -0.2075543 0.57200003 1.7149878e-38
0.038610481 -0.20719144 0.57100004 1.7426465e-38
0.039628576 -0.20682858 0.57000005 1.742682e-38
0.04071429 -0.20682858 0.57000005 1.7611211e-38
0.041873336 -0.20719144 0.57100004 1.7334618e-38
0.043036193 -0.2075543 0.57200003 1.7334618e-38
0.044048574 -0.20719144 0.57100004 1.742718e-38
0.045136191 -0.20719144 0.57100004 1.742718e-38
0.046304762 -0.2075543 0.57200003 1.7426828e-38
0.047394291 -0.2075543 0.57200003 1.7611219e-38
0.04839905 -0.20719144 0.57100004 1.7611571e-38
0.049486667 -0.20719144 0.57100004 1.7519375e-38
0.05066286 -0.2075543 0.57200003 1.7611575e-38
0.051752385 -0.2075543 0.57200003 1.751938e-38
0.052841906 -0.2075543 0.57200003 1.751938e-38
0.054025713 -0.20791714 0.57300001 1.7611575e-38
0.055117141 -0.20791714 0.57300001 1.770342e-38
0.056208573 -0.20791714 0.57300001 1.7519029e-38
0.057399999 -0.20828 0.574 1.751938e-38
0.058493331 -0.20828 0.574 1.751938e-38
0.059586667 -0.20828 0.574 1.751938e-38
0.060679998 -0.20828 0.574 1.7611575e-38
0.061773334 -0.20828 0.574 1.7426478e-38
0.062976196 -0.20864287 0.57500005 1.7518673e-38
0.064071439 -0.20864287 0.57500005 1.7426828e-38
0.065166667 -0.20864287 0.57500005 1.7426828e-38
0.06626191 -0.20864287 0.57500005 1.7427184e-38
0.067474291 -0.20900571 0.57600003 1.7427184e-38
0.068809524 -0.20973143 0.57800001 1.7427536e-38
0.070152387 -0.21045715 0.58000004 1.7427536e-38
0.071257152 -0.21045715 0.58000004 1.7427184e-38
0.072486676 -0.21082 0.58100003 1.7150597e-38
0.073593333 -0.21082 0.58100003 1.6966557e-38
0.074828573 -0.21118286 0.58200002 1.7058753e-38
0.076067619 -0.21154571 0.583 1.7058397e-38
0.077310488 -0.21190858 0.58400005 1.6966202e-38
0.078422867 -0.21190858 0.58400005 1.6966206e-38
0.079671435 -0.21227144 0.58500004 1.6966206e-38
0.080923811 -0.2126343 0.58600003 1.6689263e-38
0.082319997 -0.21336 0.588 1.6689263e-38
0.084149532 -0.2151743 0.59300005 1.6689615e-38
0.085279055 -0.2151743 0.59300005 1.6320832e-38
0.0867 -0.2159 0.59500003 1.6413032e-38
0.087833337 -0.2159 0.59500003 1.6320836e-38
0.089265719 -0.21662571 0.597 1.5492157e-38
0.09055429 -0.21698858 0.59800005 1.6321918e-38
0.091846667 -0.21735144 0.59900004 1.6875452e-38
-0.0085857147 -0.21693239 0.60100001 1.7980344e-38
-0.0074285716 -0.21657144 0.60000002 1.3554953e-38
-0.0062647625 -0.21584953 0.59800005 1.346419e-38
-0.005117143 -0.21548857 0.597 1.4293951e-38
-0.0039733332 -0.21512762 0.59600002 1.4477273e-38
-0.0028285717 -0.21440573 0.59400004 1.4385077e-38
-0.0016942859 -0.21404478 0.59300005 1.4384724e-38
-0.00056380953 -0.2136838 0.59200001 1.4845702e-38
0.00056285714 -0.21332286 0.59100002 1.4753862e-38
0.0016828573 -0.21260096 0.58900005 1.4753862e-38
0.0028000001 -0.21224 0.588 1.4937538e-38
0.0039133336 -0.21187904 0.58700001 1.4937538e-38
0.0050142859 -0.21115716 0.58500004 1.4937183e-38
0.0061180959 -0.21079621 0.58400005 1.5029379e-38
0.0072304765 -0.21079621 0.58400005 1.5213054e-38
0.0083428584 -0.21079621 0.58400005 1.5305249e-38
0.0094390474 -0.21043524 0.583 1.5029742e-38
0.010513334 -0.20971334 0.58100003 1.5306328e-38
0.01162 -0.20971334 0.58100003 1.5582552e-38
0.012704763 -0.2093524 0.58000004 1.5582552e-38
0.013809524 -0.2093524 0.58000004 1.5307399e-38
0.014888573 -0.20899145 0.57900006 1.5583986e-38
0.01596381 -0.20863047 0.57800001 1.5675463e-38
0.017035238 -0.20826954 0.57700002 1.5675463e-38
0.018134287 -0.20826954 0.57700002 1.5491441e-38
0.019200001 -0.20790859 0.57600003 1.5860224e-38
0.020261906 -0.20754763 0.57500005 1.6136078e-38
0.02132 -0.20718667 0.574 1.6228274e-38
0.022374285 -0.20682572 0.57300001 1.6228274e-38
0.023465713 -0.20682572 0.57300001 1.6412665e-38
0.024557142 -0.20682572 0.57300001 1.6136441e-38
0.025648572 -0.20682572 0.57300001 1.6505223e-38
0.026693335 -0.20646477 0.57200003 1.6413028e-38
0.027782857 -0.20646477 0.57200003 1.6597419e-38
0.028872382 -0.20646477 0.57200003 1.6597423e-38
0.029961905 -0.20646477 0.57200003 1.6689619e-38
0.031051429 -0.20646477 0.57200003 1.6689269e-38
0.032140952 -0.20646477 0.57200003 1.687366e-38
0.033230476 -0.20646477 0.57200003 1.6689615e-38
0.034320004 -0.20646477 0.57200003 1.6874006e-38
0.035409525 -0.20646477 0.57200003 1.6965841e-38
0.03649905 -0.20646477 0.57200003 1.7150233e-38
0.037588574 -0.20646477 0.57200003 1.7242428e-38
0.038610481 -0.20610382 0.57100004 1.7334624e-38
0.039698098 -0.20610382 0.57100004 1.7150949e-38
0.040785719 -0.20610382 0.57100004 1.7519731e-38
0.041946668 -0.20646477 0.57200003 1.7427536e-38
0.043111429 -0.20682572 0.57300001 1.7427536e-38
0.044125713 -0.20646477 0.57200003 1.7427184e-38
0.045215238 -0.20646477 0.57200003 1.7427184e-38
0.046304762 -0.20646477 0.57200003 1.7334632e-38
0.047394291 -0.20646477 0.57200003 1.7519024e-38
0.048483811 -0.20646477 0.57200003 1.7611575e-38
0.049573336 -0.20646477 0.57200003 1.7611575e-38
0.05066286 -0.20646477 0.57200003 1.7611575e-38
0.051842857 -0.20682572 0.57300001 1.751938e-38
0.052934285 -0.20682572 0.57300001 1.7611571e-38
0.054025713 -0.20682572 0.57300001 1.7611571e-38
0.055117141 -0.20682572 0.57300001 1.7611219e-38
0.056306668 -0.20718667 0.574 1.7703415e-38
0.057399999 -0.20718667 0.574 1.7611571e-38
0.058493331 -0.20718667 0.574 1.7611571e-38
0.059586667 -0.20718667 0.574 1.7519024e-38
0.060679998 -0.20718667 0.574 1.7611219e-38
0.061880957 -0.20754763 0.57500005 1.742755e-38
0.062976196 -0.20754763 0.57500005 1.742755e-38
0.064071439 -0.20754763 0.57500005 1.7427547e-38
0.065280005 -0.20790859 0.57600003 1.7335351e-38
0.066377148 -0.20790859 0.57600003 1.742718e-38
0.067474291 -0.20790859 0.57600003 1.742718e-38
0.068690479 -0.20826954 0.57700002 1.742718e-38
0.070152387 -0.2093524 0.58000004 1.742718e-38
0.071380004 -0.20971334 0.58100003 1.7427184e-38
0.072486676 -0.20971334 0.58100003 1.7334988e-38
0.073720008 -0.21007429 0.58200002 1.7058753e-38
0.074828573 -0.21007429 0.58200002 1.7150949e-38
0.076067619 -0.21043524 0.583 1.7150597e-38
0.077310488 -0.21079621 0.58400005 1.7058401e-38
0.078557149 -0.21115716 0.58500004 1.6966206e-38
0.079807624 -0.21151811 0.58600003 1.7058401e-38
0.081061907 -0.21187904 0.58700001 1.687401e-38
0.082319997 -0.21224 0.588 1.687401e-38
0.084149532 -0.21404478 0.59300005 1.6781814e-38
0.085279055 -0.21404478 0.59300005 1.6320836e-38
0.0867 -0.21476667 0.59500003 1.6320836e-38
0.087833337 -0.21476667 0.59500003 1.6228641e-38
0.089415245 -0.21584953 0.59800005 1.558362e-38
0.09055429 -0.21584953 0.59800005 1.6413381e-38
0.092000008 -0.21657144 0.60000002 1.7244235e-38
-0.0074285716 -0.21542858 0.60000002 1.3370199e-38
-0.0062647625 -0.21471049 0.59800005 1.3370915e-38
-0.0051085716 -0.21399239 0.59600002 1.4477263e-38
-0.0039666668 -0.21363334 0.59500003 1.4476554e-38
-0.0028285717 -0.2132743 0.59400004 1.4384358e-38
-0.0016942859 -0.21291526 0.59300005 1.4476568e-38
-0.00056380953 -0.2125562 0.59200001 1.5029742e-38
0.00056285714 -0.21219714 0.59100002 1.4846055e-38
0.0016828573 -0.21147907 0.58900005 1.4846055e-38
0.0028000001 -0.21111999 0.588 1.4937898e-38
0.0039133336 -0.21076097 0.58700001 1.4937898e-38
0.0050142859 -0.21004286 0.58500004 1.4937902e-38
0.0061180959 -0.20968382 0.58400005 1.4937902e-38
0.0072304765 -0.20968382 0.58400005 1.5029742e-38
0.0083428584 -0.20968382 0.58400005 1.5121937e-38
0.0094390474 -0.20932476 0.583 1.5121943e-38
0.010513334 -0.20860668 0.58100003 1.5214138e-38
0.01162 -0.20860668 0.58100003 1.5490006e-38
0.012704763 -0.20824763 0.58000004 1.5766593e-38
0.013809524 -0.20824763 0.58000004 1.5398524e-38
0.014888573 -0.20788859 0.57900006 1.5675111e-38
0.01596381 -0.20752953 0.57800001 1.5675463e-38
0.017035238 -0.20717049 0.57700002 1.5583267e-38
0.018134287 -0.20717049 0.57700002 1.5675114e-38
0.019200001 -0.20681143 0.57600003 1.5951701e-38
0.020261906 -0.2064524 0.57500005 1.6043882e-38
0.021357143 -0.2064524 0.57500005 1.6043882e-38
0.022413334 -0.20609333 0.574 1.6135726e-38
0.023506666 -0.20609333 0.574 1.6320117e-38
0.024599999 -0.20609333 0.574 1.6228276e-38
0.025648572 -0.2057343 0.57300001 1.6597059e-38
0.026740002 -0.2057343 0.57300001 1.6597056e-38
0.02783143 -0.2057343 0.57300001 1.650486e-38
0.028872382 -0.20537525 0.57200003 1.6504872e-38
0.029961905 -0.20537525 0.57200003 1.6689263e-38
0.031051429 -0.20537525 0.57200003 1.6689266e-38
0.032140952 -0.20537525 0.57200003 1.6873657e-38
0.033230476 -0.20537525 0.57200003 1.678145e-38
0.034320004 -0.20537525 0.57200003 1.6965841e-38
0.035409525 -0.20537525 0.57200003 1.7057683e-38
0.03649905 -0.20537525 0.57200003 1.7149878e-38
0.037588574 -0.20537525 0.57200003 1.7242074e-38
0.038610481 -0.2050162 0.57100004 1.7518661e-38
0.039698098 -0.2050162 0.57100004 1.7519728e-38
0.040785719 -0.2050162 0.57100004 1.770412e-38
0.041946668 -0.20537525 0.57200003 1.7427184e-38
0.043111429 -0.2057343 0.57300001 1.7427184e-38
0.044125713 -0.20537525 0.57200003 1.7427184e-38
0.045215238 -0.20537525 0.57200003 1.7427184e-38
0.046304762 -0.20537525 0.57200003 1.7426831e-38
0.047477145 -0.2057343 0.57300001 1.7519026e-38
0.048483811 -0.20537525 0.57200003 1.7611219e-38
0.049573336 -0.20537525 0.57200003 1.7611219e-38
0.05066286 -0.20537525 0.57200003 1.7611575e-38
0.051842857 -0.2057343 0.57300001 1.7611575e-38
0.052934285 -0.2057343 0.57300001 1.7519375e-38
0.054025713 -0.2057343 0.57300001 1.7611571e-38
0.055117141 -0.2057343 0.57300001 1.7519731e-38
0.056306668 -0.20609333 0.574 1.7519731e-38
0.057399999 -0.20609333 0.574 1.7611571e-38
0.058493331 -0.20609333 0.574 1.7703767e-38
0.059586667 -0.20609333 0.574 1.7519024e-38
0.060679998 -0.20609333 0.574 1.7519024e-38
0.061880957 -0.2064524 0.57500005 1.7335354e-38
0.06308572 -0.20681143 0.57600003 1.7335354e-38
0.064182863 -0.20681143 0.57600003 1.7335351e-38
0.065280005 -0.20681143 0.57600003 1.7335351e-38
0.066377148 -0.20681143 0.57600003 1.7334988e-38
0.067591429 -0.20717049 0.57700002 1.7242793e-38
0.068690479 -0.20717049 0.57700002 1.7242788e-38
0.070152387 -0.20824763 0.58000004 1.742718e-38
0.071380004 -0.20860668 0.58100003 1.7334988e-38
0.072486676 -0.20860668 0.58100003 1.7242793e-38
0.073720008 -0.20896572 0.58200002 1.7243144e-38
0.074957147 -0.20932476 0.583 1.7150949e-38
0.076198101 -0.20968382 0.58400005 1.7150597e-38
0.077442862 -0.21004286 0.58500004 1.7058401e-38
0.078557149 -0.21004286 0.58500004 1.6966206e-38
0.079807624 -0.21040191 0.58600003 1.6966206e-38
0.081061907 -0.21076097 0.58700001 1.687401e-38
0.082460009 -0.21147907 0.58900005 1.6781814e-38
0.084149532 -0.21291526 0.59300005 1.6689615e-38
0.085279055 -0.21291526 0.59300005 1.6228636e-38
0.0867 -0.21363334 0.59500003 1.6228285e-38
0.087833337 -0.21363334 0.59500003 1.5951698e-38
0.089415245 -0.21471049 0.59800005 1.5307749e-38
-0.0074285716 -0.21428573 0.60000002 1.3554235e-38
-0.0062647625 -0.21357144 0.59800005 1.3278364e-38
-0.0051085716 -0.21285714 0.59600002 1.420032e-38
-0.0039666668 -0.21250001 0.59500003 1.4568033e-38
-0.0028285717 -0.21214287 0.59400004 1.4660229e-38
-0.0016942859 -0.21178573 0.59300005 1.4660596e-38
-0.00056380953 -0.21142857 0.59200001 1.4844987e-38
0.00056285714 -0.21107145 0.59100002 1.4753506e-38
0.0016828573 -0.21035716 0.58900005 1.4937898e-38
0.0028000001 -0.20999999 0.588 1.4938262e-38
0.0039133336 -0.20964286 0.58700001 1.4938262e-38
0.0050228573 -0.20928572 0.58600003 1.5030093e-38
0.0061285719 -0.20892859 0.58500004 1.5030093e-38
0.0072428575 -0.20892859 0.58500004 1.5121937e-38
0.0083428584 -0.20857143 0.58400005 1.5121937e-38
0.0094390474 -0.20821428 0.583 1.5121937e-38
0.010531429 -0.20785715 0.58200002 1.5214133e-38
0.01162 -0.20750001 0.58100003 1.5305612e-38
0.012726667 -0.20750001 0.58100003 1.5490004e-38
0.013809524 -0.20714287 0.58000004 1.5490357e-38
0.014914286 -0.20714287 0.58000004 1.5766944e-38
0.015991431 -0.20678572 0.57900006 1.5767298e-38
0.017064763 -0.20642857 0.57800001 1.5767298e-38
0.018165713 -0.20642857 0.57800001 1.5675111e-38
0.019233335 -0.20607144 0.57700002 1.5951698e-38
0.020297145 -0.2057143 0.57600003 1.6043882e-38
0.021357143 -0.20535715 0.57500005 1.6136078e-38
0.022452382 -0.20535715 0.57500005 1.6319753e-38
0.023547621 -0.20535715 0.57500005 1.6319753e-38
0.024642859 -0.20535715 0.57500005 1.6319753e-38
0.025693333 -0.205 0.574 1.6780731e-38
0.026740002 -0.20464286 0.57300001 1.6780728e-38
0.02783143 -0.20464286 0.57300001 1.6688533e-38
0.028922858 -0.20464286 0.57300001 1.6412313e-38
0.030014286 -0.20464286 0.57300001 1.66889e-38
0.031105714 -0.20464286 0.57300001 1.6689266e-38
0.032140952 -0.20428573 0.57200003 1.6873657e-38
0.033230476 -0.20428573 0.57200003 1.6965839e-38
0.034320004 -0.20428573 0.57200003 1.7058034e-38
0.035409525 -0.20428573 0.57200003 1.7149514e-38
0.03649905 -0.20428573 0.57200003 1.7241709e-38
0.037588574 -0.20428573 0.57200003 1.6966206e-38
0.038678098 -0.20428573 0.57200003 1.751938e-38
0.039767619 -0.20428573 0.57200003 1.7611927e-38
0.040857144 -0.20428573 0.57200003 1.7704123e-38
0.042020001 -0.20464286 0.57300001 1.7519375e-38
0.043111429 -0.20464286 0.57300001 1.742718e-38
0.04420286 -0.20464286 0.57300001 1.7427184e-38
0.045294289 -0.20464286 0.57300001 1.7427184e-38
0.046385717 -0.20464286 0.57300001 1.7426828e-38
0.047477145 -0.20464286 0.57300001 1.7426828e-38
0.048568573 -0.20464286 0.57300001 1.7519375e-38
0.049660001 -0.20464286 0.57300001 1.7611571e-38
0.050751429 -0.20464286 0.57300001 1.7611571e-38
0.051842857 -0.20464286 0.57300001 1.7611571e-38
0.052934285 -0.20464286 0.57300001 1.7611575e-38
0.054025713 -0.20464286 0.57300001 1.7611575e-38
0.055117141 -0.20464286 0.57300001 1.7611219e-38
0.056306668 -0.205 0.574 1.7519024e-38
0.057399999 -0.205 0.574 1.7519375e-38
0.058493331 -0.205 0.574 1.7611571e-38
0.059586667 -0.205 0.574 1.7335351e-38
0.060785718 -0.20535715 0.57500005 1.7427547e-38
0.061988577 -0.2057143 0.57600003 1.742755e-38
0.06308572 -0.2057143 0.57600003 1.7335354e-38
0.064182863 -0.2057143 0.57600003 1.7427547e-38
0.065280005 -0.2057143 0.57600003 1.7335351e-38
0.066492379 -0.20607144 0.57700002 1.7242793e-38
0.067591429 -0.20607144 0.57700002 1.7334988e-38
0.068809524 -0.20642857 0.57800001 1.7334988e-38
0.070152387 -0.20714287 0.58000004 1.7427184e-38
0.071380004 -0.20750001 0.58100003 1.7426828e-38
0.072486676 -0.20750001 0.58100003 1.7334632e-38
0.073720008 -0.20785715 0.58200002 1.7242793e-38
0.074957147 -0.20821428 0.583 1.7058401e-38
0.07645905 -0.20928572 0.58600003 1.7058401e-38
0.077575237 -0.20928572 0.58600003 1.7058401e-38
0.078691438 -0.20928572 0.58600003 1.6966206e-38
0.079943813 -0.20964286 0.58700001 1.7058401e-38
0.081061907 -0.20964286 0.58700001 1.687401e-38
0.082600005 -0.2107143 0.59000003 1.6781814e-38
0.084149532 -0.21178573 0.59300005 1.6689615e-38
0.085279055 -0.21178573 0.59300005 1.6320832e-38
0.086845718 -0.21285714 0.59600002 1.6411949e-38
0.087980956 -0.21285714 0.59600002 1.5674384e-38
0.089714289 -0.21428573 0.60000002 1.5214828e-38
-0.0074285716 -0.21314286 0.60000002 1.3554597e-38
-0.0062647625 -0.2124324 0.59800005 1.3278381e-38
-0.005117143 -0.21207714 0.597 1.4108141e-38
-0.0039733332 -0.2117219 0.59600002 1.4291814e-38
-0.0028333333 -0.21136668 0.59500003 1.4752792e-38
-0.0016942859 -0.21065621 0.59300005 1.4660951e-38
-0.00056380953 -0.21030095 0.59200001 1.4753146e-38
0.0005619048 -0.20959048 0.59000003 1.4845702e-38
0.0016828573 -0.20923525 0.58900005 1.5030093e-38
0.0028000001 -0.20888001 0.588 1.5029742e-38
0.0039133336 -0.20852476 0.58700001 1.5029742e-38
0.0050228573 -0.20816952 0.58600003 1.5122642e-38
0.0061285719 -0.20781431 0.58500004 1.5122642e-38
0.0072428575 -0.20781431 0.58500004 1.5122289e-38
0.0083428584 -0.20745906 0.58400005 1.5030093e-38
0.0094390474 -0.2071038 0.583 1.5305249e-38
0.010531429 -0.20674857 0.58200002 1.5581836e-38
0.01162 -0.20639335 0.58100003 1.5397445e-38
0.012726667 -0.20639335 0.58100003 1.5397445e-38
0.013833334 -0.20639335 0.58100003 1.5398161e-38
0.014914286 -0.2060381 0.58000004 1.5859139e-38
0.016019048 -0.2060381 0.58000004 1.5767295e-38
0.017094286 -0.20568287 0.57900006 1.5767295e-38
0.018165713 -0.20532763 0.57800001 1.5675467e-38
0.019233335 -0.20497239 0.57700002 1.5952054e-38
0.020332381 -0.20497239 0.57700002 1.6043882e-38
0.021394286 -0.20461714 0.57600003 1.6136078e-38
0.022491429 -0.20461714 0.57600003 1.631975e-38
0.023588574 -0.20461714 0.57600003 1.631975e-38
0.024642859 -0.20426193 0.57500005 1.6319401e-38
0.025693333 -0.20390667 0.574 1.6688184e-38
0.026786666 -0.20390667 0.574 1.6688173e-38
0.02788 -0.20390667 0.574 1.6780368e-38
0.028922858 -0.20355143 0.57300001 1.6780735e-38
0.030014286 -0.20355143 0.57300001 1.6780735e-38
0.031105714 -0.20355143 0.57300001 1.6689263e-38
0.032140952 -0.2031962 0.57200003 1.696585e-38
0.033230476 -0.2031962 0.57200003 1.6965841e-38
0.034320004 -0.2031962 0.57200003 1.7058037e-38
0.035471432 -0.20355143 0.57300001 1.7057683e-38
0.03649905 -0.2031962 0.57200003 1.7149878e-38
0.037588574 -0.2031962 0.57200003 1.7058401e-38
0.038678098 -0.2031962 0.57200003 1.751938e-38
0.039767619 -0.2031962 0.57200003 1.7519375e-38
0.040857144 -0.2031962 0.57200003 1.7519375e-38
0.042020001 -0.20355143 0.57300001 1.742718e-38
0.043111429 -0.20355143 0.57300001 1.7334984e-38
0.04420286 -0.20355143 0.57300001 1.7427184e-38
0.045294289 -0.20355143 0.57300001 1.7427184e-38
0.046385717 -0.20355143 0.57300001 1.7427184e-38
0.047477145 -0.20355143 0.57300001 1.7427184e-38
0.048568573 -0.20355143 0.57300001 1.7334984e-38
0.049660001 -0.20355143 0.57300001 1.742718e-38
0.050751429 -0.20355143 0.57300001 1.7519375e-38
0.051842857 -0.20355143 0.57300001 1.7703767e-38
0.052934285 -0.20355143 0.57300001 1.7611575e-38
0.054025713 -0.20355143 0.57300001 1.7611575e-38
0.055117141 -0.20355143 0.57300001 1.7795613e-38
0.056306668 -0.20390667 0.574 1.7611222e-38
0.057399999 -0.20390667 0.574 1.7611575e-38
0.058493331 -0.20390667 0.574 1.7611575e-38
0.059586667 -0.20390667 0.574 1.7519024e-38
0.060785718 -0.20426193 0.57500005 1.7519024e-38
0.061988577 -0.20461714 0.57600003 1.742755e-38
0.06308572 -0.20461714 0.57600003 1.7335354e-38
0.064294286 -0.20497239 0.57700002 1.7426828e-38
0.065393336 -0.20497239 0.57700002 1.7426828e-38
0.066492379 -0.20497239 0.57700002 1.7426828e-38
0.067708574 -0.20532763 0.57800001 1.7611219e-38
0.068809524 -0.20532763 0.57800001 1.7334632e-38
0.070394285 -0.20674857 0.58200002 1.7334632e-38
0.071502857 -0.20674857 0.58200002 1.7426831e-38
0.072611429 -0.20674857 0.58200002 1.7334635e-38
0.073846668 -0.2071038 0.583 1.7242793e-38
0.075085714 -0.20745906 0.58400005 1.7150597e-38
0.07645905 -0.20816952 0.58600003 1.7150593e-38
0.077575237 -0.20816952 0.58600003 1.7058397e-38
0.078825712 -0.20852476 0.58700001 1.7058401e-38
0.079943813 -0.20852476 0.58700001 1.7058401e-38
0.0813381 -0.20923525 0.58900005 1.6689985e-38
0.082740009 -0.20994572 0.59100002 1.6597789e-38
0.084149532 -0.21065621 0.59300005 1.6597772e-38
0.085422866 -0.21101144 0.59400004 1.6321185e-38
0.086991429 -0.21207714 0.597 1.6320472e-38
0.088128574 -0.21207714 0.597 1.5490711e-38
0.089415245 -0.2124324 0.59800005 1.4846421e-38
-0.0074285716 -0.212 0.60000002 1.3462402e-38
-0.0062647625 -0.21129335 0.59800005 1.3370928e-38
-0.005117143 -0.21094 0.597 1.4108493e-38
-0.0039733332 -0.21058668 0.59600002 1.419997e-38
-0.0028380952 -0.21058668 0.59600002 1.4753143e-38
-0.001697143 -0.20988001 0.59400004 1.4661664e-38
-0.00056380953 -0.20917334 0.59200001 1.475386e-38
0.0005619048 -0.20846668 0.59000003 1.4937898e-38
0.0016828573 -0.20811334 0.58900005 1.5030093e-38
0.0028000001 -0.20775999 0.588 1.4938262e-38
0.0039133336 -0.20740667 0.58700001 1.5030458e-38
0.0050228573 -0.20705333 0.58600003 1.5122645e-38
0.0061285719 -0.20670001 0.58500004 1.5122645e-38
0.0072428575 -0.20670001 0.58500004 1.5122645e-38
0.0083428584 -0.20634668 0.58400005 1.5122645e-38
0.0094390474 -0.20599332 0.583 1.5305601e-38
0.010531429 -0.20564 0.58200002 1.5397797e-38
0.01162 -0.20528667 0.58100003 1.5489992e-38
0.012726667 -0.20528667 0.58100003 1.5489992e-38
0.013833334 -0.20528667 0.58100003 1.5489992e-38
0.014914286 -0.20493336 0.58000004 1.5950971e-38
0.016019048 -0.20493336 0.58000004 1.5859488e-38
0.017094286 -0.20458002 0.57900006 1.5767293e-38
0.018197145 -0.20458002 0.57900006 1.5859854e-38
0.019233335 -0.20387334 0.57700002 1.595205e-38
0.020332381 -0.20387334 0.57700002 1.6043882e-38
0.021431429 -0.20387334 0.57700002 1.6136078e-38
0.022491429 -0.20352001 0.57600003 1.6227557e-38
0.023588574 -0.20352001 0.57600003 1.6227557e-38
0.024685716 -0.20352001 0.57600003 1.6319757e-38
0.025738096 -0.20316668 0.57500005 1.668854e-38
0.026833337 -0.20316668 0.57500005 1.6596693e-38
0.02788 -0.20281333 0.574 1.6688889e-38
0.028973334 -0.20281333 0.574 1.6780731e-38
0.030066665 -0.20281333 0.574 1.6780731e-38
0.031105714 -0.20246001 0.57300001 1.6781098e-38
0.03219714 -0.20246001 0.57300001 1.7057685e-38
0.033288572 -0.20246001 0.57300001 1.7058034e-38
0.03438 -0.20246001 0.57300001 1.715023e-38
0.035471432 -0.20246001 0.57300001 1.7242425e-38
0.03649905 -0.20210667 0.57200003 1.7334621e-38
0.037588574 -0.20210667 0.57200003 1.733534e-38
0.038678098 -0.20210667 0.57200003 1.7427536e-38
0.039767619 -0.20210667 0.57200003 1.742718e-38
0.040857144 -0.20210667 0.57200003 1.7519375e-38
0.042020001 -0.20246001 0.57300001 1.7427184e-38
0.043111429 -0.20246001 0.57300001 1.7334988e-38
0.04420286 -0.20246001 0.57300001 1.7334988e-38
0.045373332 -0.20281333 0.574 1.7427184e-38
0.046466667 -0.20281333 0.574 1.7427184e-38
0.047559999 -0.20281333 0.574 1.7427184e-38
0.048568573 -0.20246001 0.57300001 1.742718e-38
0.049660001 -0.20246001 0.57300001 1.7611571e-38
0.050751429 -0.20246001 0.57300001 1.7611571e-38
0.051842857 -0.20246001 0.57300001 1.7703767e-38
0.053026669 -0.20281333 0.574 1.7611571e-38
0.05412 -0.20281333 0.574 1.7611571e-38
0.055213332 -0.20281333 0.574 1.7703415e-38
0.056306668 -0.20281333 0.574 1.7611219e-38
0.057399999 -0.20281333 0.574 1.751938e-38
0.058595244 -0.20316668 0.57500005 1.7611575e-38
0.059690483 -0.20316668 0.57500005 1.7611575e-38
0.060891431 -0.20352001 0.57600003 1.7611575e-38
0.061988577 -0.20352001 0.57600003 1.7519029e-38
0.063195243 -0.20387334 0.57700002 1.7426834e-38
0.064294286 -0.20387334 0.57700002 1.7427184e-38
0.065506667 -0.20422667 0.57800001 1.7427184e-38
0.066607624 -0.20422667 0.57800001 1.7426828e-38
0.067708574 -0.20422667 0.57800001 1.7611219e-38
0.068928577 -0.20458002 0.57900006 1.7242793e-38
0.070394285 -0.20564 0.58200002 1.7334988e-38
0.071502857 -0.20564 0.58200002 1.7334632e-38
0.072611429 -0.20564 0.58200002 1.7242437e-38
0.07410001 -0.20670001 0.58500004 1.7150597e-38
0.075214289 -0.20670001 0.58500004 1.7242793e-38
0.076589525 -0.20740667 0.58700001 1.7058401e-38
0.077707618 -0.20740667 0.58700001 1.6966206e-38
0.078825712 -0.20740667 0.58700001 1.7057683e-38
0.079943813 -0.20740667 0.58700001 1.7057683e-38
0.0813381 -0.20811334 0.58900005 1.6689619e-38
0.083020002 -0.20952669 0.59300005 1.6689619e-38
0.084149532 -0.20952669 0.59300005 1.6505223e-38
0.085710481 -0.21058668 0.59600002 1.6320832e-38
0.086845718 -0.21058668 0.59600002 1.6504144e-38
0.088128574 -0.21094 0.597 1.512121e-38
0.089415245 -0.21129335 0.59800005 1.4201402e-38
-0.0074409526 -0.21120857 0.60100001 1.3462405e-38
-0.0062857145 -0.21085715 0.60000002 1.3370572e-38
-0.005117143 -0.20980285 0.597 1.4200333e-38
-0.00398 -0.20980285 0.597 1.4476557e-38
-0.0028380952 -0.20945144 0.59600002 1.4937535e-38
-0.0017 -0.20910001 0.59500003 1.4845692e-38
-0.00056380953 -0.20804571 0.59200001 1.4753497e-38
0.0005619048 -0.20734286 0.59000003 1.4937538e-38
0.0016828573 -0.20699145 0.58900005 1.5029733e-38
0.002804762 -0.20699145 0.58900005 1.5030098e-38
0.00392 -0.20664001 0.588 1.5214489e-38
0.0050314283 -0.20628858 0.58700001 1.5305954e-38
0.0061285719 -0.20558573 0.58500004 1.5213759e-38
0.0072428575 -0.20558573 0.58500004 1.5213406e-38
0.0083428584 -0.2052343 0.58400005 1.5397797e-38
0.0094552385 -0.2052343 0.58400005 1.5305601e-38
0.010531429 -0.20453143 0.58200002 1.5305601e-38
0.01164 -0.20453143 0.58200002 1.548999e-38
0.012726667 -0.20418 0.58100003 1.5766577e-38
0.013833334 -0.20418 0.58100003 1.5490711e-38
0.014914286 -0.20382859 0.58000004 1.5859494e-38
0.016019048 -0.20382859 0.58000004 1.5675816e-38
0.017123811 -0.20382859 0.58000004 1.5675816e-38
0.018197145 -0.20347716 0.57900006 1.5675463e-38
0.019266667 -0.20312572 0.57800001 1.5859854e-38
0.020332381 -0.20277429 0.57700002 1.6043882e-38
0.021431429 -0.20277429 0.57700002 1.6136078e-38
0.022491429 -0.20242286 0.57600003 1.6136081e-38
0.023588574 -0.20242286 0.57600003 1.6136081e-38
0.024685716 -0.20242286 0.57600003 1.6319757e-38
0.025782859 -0.20242286 0.57600003 1.6504149e-38
0.026833337 -0.20207144 0.57500005 1.6504144e-38
0.027928574 -0.20207144 0.57500005 1.659634e-38
0.028973334 -0.20172 0.574 1.6781084e-38
0.030066665 -0.20172 0.574 1.6781084e-38
0.031105714 -0.20136859 0.57300001 1.6597067e-38
0.03219714 -0.20136859 0.57300001 1.7058045e-38
0.033288572 -0.20136859 0.57300001 1.7058034e-38
0.03438 -0.20136859 0.57300001 1.715023e-38
0.035471432 -0.20136859 0.57300001 1.715023e-38
0.03656286 -0.20136859 0.57300001 1.7334621e-38
0.037654288 -0.20136859 0.57300001 1.7334621e-38
0.038678098 -0.20101714 0.57200003 1.7519012e-38
0.039767619 -0.20101714 0.57200003 1.7427184e-38
0.040928572 -0.20136859 0.57300001 1.751938e-38
0.042093333 -0.20172 0.574 1.7611219e-38
0.043186668 -0.20172 0.574 1.7426828e-38
0.04428 -0.20172 0.574 1.733534e-38
0.045373332 -0.20172 0.574 1.7427536e-38
0.046466667 -0.20172 0.574 1.7426828e-38
0.047559999 -0.20172 0.574 1.7426828e-38
0.048653331 -0.20172 0.574 1.7519375e-38
0.049746666 -0.20172 0.574 1.7519375e-38
0.050751429 -0.20136859 0.57300001 1.7611571e-38
0.051842857 -0.20136859 0.57300001 1.7611571e-38
0.053026669 -0.20172 0.574 1.7703406e-38
0.05412 -0.20172 0.574 1.7703406e-38
0.055213332 -0.20172 0.574 1.7611575e-38
0.056404766 -0.20207144 0.57500005 1.751938e-38
0.057500005 -0.20207144 0.57500005 1.7519375e-38
0.058697145 -0.20242286 0.57600003 1.7519375e-38
0.059794288 -0.20242286 0.57600003 1.751938e-38
0.060997147 -0.20277429 0.57700002 1.7611575e-38
0.062096193 -0.20277429 0.57700002 1.770342e-38
0.063195243 -0.20277429 0.57700002 1.7611225e-38
0.06440571 -0.20312572 0.57800001 1.751938e-38
0.065506667 -0.20312572 0.57800001 1.7427184e-38
0.066722862 -0.20347716 0.57900006 1.7426828e-38
0.067825727 -0.20347716 0.57900006 1.7703415e-38
0.069047622 -0.20382859 0.58000004 1.7334988e-38
0.070394285 -0.20453143 0.58200002 1.7334988e-38
0.071748577 -0.2052343 0.58400005 1.7334988e-38
0.072860956 -0.2052343 0.58400005 1.7242793e-38
0.07410001 -0.20558573 0.58500004 1.7243144e-38
0.075342856 -0.20593715 0.58600003 1.733534e-38
0.076589525 -0.20628858 0.58700001 1.7058401e-38
0.077707618 -0.20628858 0.58700001 1.6966206e-38
0.078825712 -0.20628858 0.58700001 1.7058037e-38
0.080079995 -0.20664001 0.588 1.6965841e-38
0.081476189 -0.20734286 0.59000003 1.6874362e-38
0.082740009 -0.20769429 0.59100002 1.6874362e-38
0.084149532 -0.20839715 0.59300005 1.6505228e-38
0.085710481 -0.20945144 0.59600002 1.6413032e-38
0.086845718 -0.20945144 0.59600002 1.6228285e-38
0.088128574 -0.20980285 0.597 1.484535e-38
0.089415245 -0.21015429 0.59800005 1.4017388e-38
-0.0074409526 -0.21006382 0.60100001 1.3462402e-38
-0.0062961904 -0.21006382 0.60100001 1.3186537e-38
-0.0051428573 -0.20971429 0.60000002 1.4200689e-38
-0.0039866669 -0.20901525 0.59800005 1.4568752e-38
-0.0028428573 -0.20866571 0.597 1.4753143e-38
-0.0017 -0.20796667 0.59500003 1.4844976e-38
-0.00056380953 -0.20691811 0.59200001 1.4937172e-38
0.0005619048 -0.20621906 0.59000003 1.4660236e-38
0.0016828573 -0.20586953 0.58900005 1.5121214e-38
0.002804762 -0.20586953 0.58900005 1.5121577e-38
0.00392 -0.20552 0.588 1.5213773e-38
0.0050314283 -0.20517047 0.58700001 1.5030093e-38
0.0061390474 -0.20482096 0.58600003 1.5030093e-38
0.0072428575 -0.20447144 0.58500004 1.5305598e-38
0.0083428584 -0.20412192 0.58400005 1.5305598e-38
0.0094552385 -0.20412192 0.58400005 1.5305598e-38
0.010531429 -0.20342286 0.58200002 1.548999e-38
0.01164 -0.20342286 0.58200002 1.5398866e-38
0.012726667 -0.20307334 0.58100003 1.5675453e-38
0.013833334 -0.20307334 0.58100003 1.5491427e-38
0.014914286 -0.20272382 0.58000004 1.5675819e-38
0.016019048 -0.20272382 0.58000004 1.5675819e-38
0.017123811 -0.20272382 0.58000004 1.5675819e-38
0.018197145 -0.20237431 0.57900006 1.5675463e-38
0.019266667 -0.20202477 0.57800001 1.595205e-38
0.020367619 -0.20202477 0.57800001 1.5952406e-38
0.021431429 -0.20167524 0.57700002 1.6044601e-38
0.022530477 -0.20167524 0.57700002 1.6136078e-38
0.023629524 -0.20167524 0.57700002 1.6228274e-38
0.024685716 -0.20132573 0.57600003 1.6411949e-38
0.025782859 -0.20132573 0.57600003 1.6504144e-38
0.026833337 -0.20097621 0.57500005 1.6412665e-38
0.027928574 -0.20097621 0.57500005 1.6597056e-38
0.029023811 -0.20097621 0.57500005 1.6780731e-38
0.030119048 -0.20097621 0.57500005 1.6780731e-38
0.031159999 -0.20062667 0.574 1.6597423e-38
0.03219714 -0.20027713 0.57300001 1.7058401e-38
0.033288572 -0.20027713 0.57300001 1.6966202e-38
0.03438 -0.20027713 0.57300001 1.7058397e-38
0.035471432 -0.20027713 0.57300001 1.7242425e-38
0.03656286 -0.20027713 0.57300001 1.7242425e-38
0.037654288 -0.20027713 0.57300001 1.7058037e-38
0.038745716 -0.20027713 0.57300001 1.7519015e-38
0.039837144 -0.20027713 0.57300001 1.742718e-38
0.040928572 -0.20027713 0.57300001 1.7611571e-38
0.042093333 -0.20062667 0.574 1.7611575e-38
0.043186668 -0.20062667 0.574 1.751938e-38
0.04428 -0.20062667 0.574 1.7519731e-38
0.045373332 -0.20062667 0.574 1.7519731e-38
0.046466667 -0.20062667 0.574 1.751938e-38
0.047559999 -0.20062667 0.574 1.7427184e-38
0.048653331 -0.20062667 0.574 1.7519375e-38
0.049746666 -0.20062667 0.574 1.7611571e-38
0.050751429 -0.20027713 0.57300001 1.7703406e-38
0.051842857 -0.20027713 0.57300001 1.7795602e-38
0.053026669 -0.20062667 0.574 1.7703404e-38
0.05412 -0.20062667 0.574 1.7703404e-38
0.055213332 -0.20062667 0.574 1.7519375e-38
0.056404766 -0.20097621 0.57500005 1.7519375e-38
0.057500005 -0.20097621 0.57500005 1.7519375e-38
0.058697145 -0.20132573 0.57600003 1.7519375e-38
0.059898097 -0.20167524 0.57700002 1.751938e-38
0.060997147 -0.20167524 0.57700002 1.751938e-38
0.062096193 -0.20167524 0.57700002 1.7519024e-38
0.06330476 -0.20202477 0.57800001 1.7519024e-38
0.064517148 -0.20237431 0.57900006 1.7519024e-38
0.065620005 -0.20237431 0.57900006 1.7426828e-38
0.066838101 -0.20272382 0.58000004 1.7519026e-38
0.067942858 -0.20272382 0.58000004 1.7519026e-38
0.069166668 -0.20307334 0.58100003 1.742718e-38
0.070394285 -0.20342286 0.58200002 1.742718e-38
0.071748577 -0.20412192 0.58400005 1.7334988e-38
0.072860956 -0.20412192 0.58400005 1.7334988e-38
0.07410001 -0.20447144 0.58500004 1.7242788e-38
0.075342856 -0.20482096 0.58600003 1.7242788e-38
0.076589525 -0.20517047 0.58700001 1.7057683e-38
0.07784 -0.20552 0.588 1.7057683e-38
0.078959994 -0.20552 0.588 1.7058037e-38
0.080216192 -0.20586953 0.58900005 1.7058037e-38
0.081476189 -0.20621906 0.59000003 1.6874362e-38
0.082740009 -0.20656857 0.59100002 1.6782166e-38
0.084149532 -0.20726764 0.59300005 1.6413392e-38
0.085710481 -0.20831619 0.59600002 1.6321196e-38
0.086991429 -0.20866571 0.597 1.6135726e-38
0.088128574 -0.20866571 0.597 1.4660596e-38
0.089415245 -0.20901525 0.59800005 1.3740784e-38
-0.0062857145 -0.20857143 0.60000002 1.3094704e-38
-0.0051428573 -0.20857143 0.60000002 1.4108856e-38
-0.0039866669 -0.20787621 0.59800005 1.4476557e-38
-0.0028428573 -0.20752856 0.597 1.4660948e-38
-0.0017028572 -0.20718096 0.59600002 1.4660951e-38
-0.00056666671 -0.20683333 0.59500003 1.5121929e-38
0.00056285714 -0.20544286 0.59100002 1.5120491e-38
0.0016857143 -0.20509525 0.59000003 1.5212687e-38
0.002804762 -0.20474763 0.58900005 1.5029747e-38
0.00392 -0.20439999 0.588 1.5029747e-38
0.0050399997 -0.20439999 0.588 1.5213406e-38
0.0061390474 -0.20370477 0.58600003 1.5305601e-38
0.0072552385 -0.20370477 0.58600003 1.5305598e-38
0.008357143 -0.20335715 0.58500004 1.5213403e-38
0.0094552385 -0.20300955 0.58400005 1.5305598e-38
0.010549523 -0.2026619 0.583 1.5305598e-38
0.01164 -0.20231429 0.58200002 1.5306307e-38
0.012726667 -0.20196669 0.58100003 1.5859481e-38
0.013833334 -0.20196669 0.58100003 1.5582907e-38
0.014914286 -0.20161906 0.58000004 1.5582907e-38
0.016019048 -0.20161906 0.58000004 1.5767295e-38
0.017123811 -0.20161906 0.58000004 1.5951687e-38
0.018228572 -0.20161906 0.58000004 1.5859491e-38
0.019300001 -0.20127144 0.57900006 1.6043882e-38
0.020367619 -0.20092382 0.57800001 1.6135359e-38
0.02146857 -0.20092382 0.57800001 1.6135359e-38
0.022530477 -0.2005762 0.57700002 1.6043885e-38
0.023629524 -0.2005762 0.57700002 1.6228276e-38
0.024728572 -0.2005762 0.57700002 1.6228276e-38
0.02582762 -0.2005762 0.57700002 1.6504863e-38
0.02688 -0.20022857 0.57600003 1.650486e-38
0.027928574 -0.19988096 0.57500005 1.650486e-38
0.029023811 -0.19988096 0.57500005 1.668854e-38
0.030119048 -0.19988096 0.57500005 1.6872931e-38
0.031159999 -0.19953333 0.574 1.6689619e-38
0.03219714 -0.19918571 0.57300001 1.7334988e-38
0.033288572 -0.19918571 0.57300001 1.7058401e-38
0.03438 -0.19918571 0.57300001 1.7058401e-38
0.035471432 -0.19918571 0.57300001 1.7149878e-38
0.03656286 -0.19918571 0.57300001 1.7242074e-38
0.037654288 -0.19918571 0.57300001 1.7150244e-38
0.038745716 -0.19918571 0.57300001 1.7334635e-38
0.039837144 -0.19918571 0.57300001 1.7518661e-38
0.040928572 -0.19918571 0.57300001 1.7887443e-38
0.042093333 -0.19953333 0.574 1.7519015e-38
0.043186668 -0.19953333 0.574 1.742682e-38
0.04428 -0.19953333 0.574 1.742718e-38
0.045373332 -0.19953333 0.574 1.7611571e-38
0.046466667 -0.19953333 0.574 1.7518661e-38
0.047642861 -0.19988096 0.57500005 1.7426465e-38
0.048653331 -0.19953333 0.574 1.7518661e-38
0.049746666 -0.19953333 0.574 1.7610856e-38
0.050839998 -0.19953333 0.574 1.7703406e-38
0.051933333 -0.19953333 0.574 1.7703406e-38
0.053026669 -0.19953333 0.574 1.7702685e-38
0.054214288 -0.19988096 0.57500005 1.7702685e-38
0.055309527 -0.19988096 0.57500005 1.7611211e-38
0.05650286 -0.20022857 0.57600003 1.7611211e-38
0.057600003 -0.20022857 0.57600003 1.7519012e-38
0.058900952 -0.20092382 0.57800001 1.7519012e-38
0.060001906 -0.20092382 0.57800001 1.7519375e-38
0.06110286 -0.20092382 0.57800001 1.742718e-38
0.062203813 -0.20092382 0.57800001 1.7427184e-38
0.06330476 -0.20092382 0.57800001 1.7427184e-38
0.064628579 -0.20161906 0.58000004 1.7426828e-38
0.065733336 -0.20161906 0.58000004 1.7426828e-38
0.066953339 -0.20196669 0.58100003 1.7611225e-38
0.068060003 -0.20196669 0.58100003 1.7426834e-38
0.069285713 -0.20231429 0.58200002 1.7334988e-38
0.070515238 -0.2026619 0.583 1.7427184e-38
0.071748577 -0.20300955 0.58400005 1.7427184e-38
0.072860956 -0.20300955 0.58400005 1.7242793e-38
0.07410001 -0.20335715 0.58500004 1.7150597e-38
0.075342856 -0.20370477 0.58600003 1.7058401e-38
0.076589525 -0.20405239 0.58700001 1.696549e-38
0.07784 -0.20439999 0.588 1.696549e-38
0.079094291 -0.20474763 0.58900005 1.7058037e-38
0.080216192 -0.20474763 0.58900005 1.7058037e-38
0.081476189 -0.20509525 0.59000003 1.6965836e-38
0.082740009 -0.20544286 0.59100002 1.6597053e-38
0.084291428 -0.20648572 0.59400004 1.6505223e-38
0.085710481 -0.20718096 0.59600002 1.6505223e-38
0.086845718 -0.20718096 0.59600002 1.6136445e-38
0.088128574 -0.20752856 0.597 1.4292532e-38
0.089415245 -0.20787621 0.59800005 1.346529e-38
-0.0062857145 -0.20742857 0.60000002 1.2725919e-38
-0.0051428573 -0.20742857 0.60000002 1.4016657e-38
-0.0039866669 -0.20673716 0.59800005 1.4292884e-38
-0.0028428573 -0.20639142 0.597 1.438508e-38
-0.0017028572 -0.20604572 0.59600002 1.447692e-38
-0.00056666671 -0.20570001 0.59500003 1.4845702e-38
0.00056285714 -0.20431715 0.59100002 1.4845706e-38
0.0016857143 -0.20397145 0.59000003 1.4845706e-38
0.002804762 -0.20362574 0.58900005 1.493683e-38
0.0039266669 -0.20362574 0.58900005 1.5213417e-38
0.0050399997 -0.20328 0.588 1.5030093e-38
0.0061495239 -0.20293429 0.58700001 1.5122289e-38
0.0072552385 -0.20258857 0.58600003 1.5214489e-38
0.008357143 -0.20224287 0.58500004 1.5214489e-38
0.0094552385 -0.20189716 0.58400005 1.5397794e-38
0.010549523 -0.20155142 0.583 1.5397794e-38
0.01164 -0.20120572 0.58200002 1.5305598e-38
0.012726667 -0.20086001 0.58100003 1.5582185e-38
0.013833334 -0.20086001 0.58100003 1.5490357e-38
0.014914286 -0.20051429 0.58000004 1.5674748e-38
0.016019048 -0.20051429 0.58000004 1.5766579e-38
0.017123811 -0.20051429 0.58000004 1.5766579e-38
0.018228572 -0.20051429 0.58000004 1.5489997e-38
0.019300001 -0.20016858 0.57900006 1.6135366e-38
0.02040286 -0.20016858 0.57900006 1.6135359e-38
0.02146857 -0.19982286 0.57800001 1.6135359e-38
0.022530477 -0.19947715 0.57700002 1.6043882e-38
0.023629524 -0.19947715 0.57700002 1.6228274e-38
0.024728572 -0.19947715 0.57700002 1.6136441e-38
0.02582762 -0.19947715 0.57700002 1.6413028e-38
0.02688 -0.19913144 0.57600003 1.6504858e-38
0.027977144 -0.19913144 0.57600003 1.6504858e-38
0.029023811 -0.19878574 0.57500005 1.6412668e-38
0.030119048 -0.19878574 0.57500005 1.678145e-38
0.031159999 -0.19844 0.574 1.6689615e-38
0.032253332 -0.19844 0.574 1.7058397e-38
0.033346668 -0.19844 0.574 1.715023e-38
0.03444 -0.19844 0.574 1.715023e-38
0.035533335 -0.19844 0.574 1.7058037e-38
0.036626667 -0.19844 0.574 1.7334624e-38
0.037719999 -0.19844 0.574 1.7334988e-38
0.038813334 -0.19844 0.574 1.7334988e-38
0.039906666 -0.19844 0.574 1.742682e-38
0.040999997 -0.19844 0.574 1.7703406e-38
0.042093333 -0.19844 0.574 1.7519015e-38
0.043186668 -0.19844 0.574 1.7519015e-38
0.04428 -0.19844 0.574 1.7426465e-38
0.045373332 -0.19844 0.574 1.7518661e-38
0.046466667 -0.19844 0.574 1.7519015e-38
0.047642861 -0.19878574 0.57500005 1.742682e-38
0.048738096 -0.19878574 0.57500005 1.7333905e-38
0.049746666 -0.19844 0.574 1.7702688e-38
0.050839998 -0.19844 0.574 1.7611211e-38
0.051933333 -0.19844 0.574 1.7611211e-38
0.053119052 -0.19878574 0.57500005 1.7611208e-38
0.054308575 -0.19913144 0.57600003 1.7611208e-38
0.055405717 -0.19913144 0.57600003 1.7611211e-38
0.056600954 -0.19947715 0.57700002 1.7611211e-38
0.057700001 -0.19947715 0.57700002 1.742718e-38
0.058900952 -0.19982286 0.57800001 1.7611571e-38
0.060001906 -0.19982286 0.57800001 1.7611927e-38
0.06110286 -0.19982286 0.57800001 1.7611927e-38
0.062203813 -0.19982286 0.57800001 1.7427184e-38
0.063414291 -0.20016858 0.57900006 1.7427184e-38
0.064628579 -0.20051429 0.58000004 1.7427184e-38
0.065846667 -0.20086001 0.58100003 1.7427184e-38
0.066953339 -0.20086001 0.58100003 1.7519024e-38
0.068060003 -0.20086001 0.58100003 1.7519024e-38
0.069285713 -0.20120572 0.58200002 1.7334269e-38
0.070515238 -0.20155142 0.583 1.7426465e-38
0.071748577 -0.20189716 0.58400005 1.7426465e-38
0.072985716 -0.20224287 0.58500004 1.7334269e-38
0.07422667 -0.20258857 0.58600003 1.7242788e-38
0.075342856 -0.20258857 0.58600003 1.7058397e-38
0.076589525 -0.20293429 0.58700001 1.6965487e-38
0.07784 -0.20328 0.588 1.7057683e-38
0.079094291 -0.20362574 0.58900005 1.6965841e-38
0.080216192 -0.20362574 0.58900005 1.6965841e-38
0.081476189 -0.20397145 0.59000003 1.678145e-38
0.082740009 -0.20431715 0.59100002 1.6597059e-38
0.08443334 -0.20570001 0.59500003 1.650486e-38
0.085710481 -0.20604572 0.59600002 1.6689252e-38
0.086845718 -0.20604572 0.59600002 1.6227922e-38
0.088128574 -0.20639142 0.597 1.4476205e-38
-0.0063066673 -0.20697336 0.60200006 1.3094349e-38
-0.0051428573 -0.20628572 0.60000002 1.4200697e-38
-0.0039933338 -0.20594192 0.59900004 1.4384361e-38
-0.0028476194 -0.20559812 0.59800005 1.4384361e-38
-0.0017028572 -0.20491049 0.59600002 1.4384012e-38
-0.00056666671 -0.20456667 0.59500003 1.4752795e-38
0.00056285714 -0.20319144 0.59100002 1.4752792e-38
0.0016885714 -0.20319144 0.59100002 1.4844987e-38
0.0028095241 -0.20284761 0.59000003 1.4844634e-38
0.0039266669 -0.20250382 0.58900005 1.5029026e-38
0.0050485721 -0.20250382 0.58900005 1.5213406e-38
0.0061599999 -0.20216 0.588 1.5305601e-38
0.007267619 -0.20181619 0.58700001 1.5214133e-38
0.008357143 -0.20112859 0.58500004 1.5214133e-38
0.0094552385 -0.20078477 0.58400005 1.5214841e-38
0.010549523 -0.20044094 0.583 1.5214841e-38
0.01164 -0.20009714 0.58200002 1.5305966e-38
0.012726667 -0.19975334 0.58100003 1.5398161e-38
0.013833334 -0.19975334 0.58100003 1.5581486e-38
0.014914286 -0.19940954 0.58000004 1.5858073e-38
0.016019048 -0.19940954 0.58000004 1.5674748e-38
0.017123811 -0.19940954 0.58000004 1.5859139e-38
0.018228572 -0.19940954 0.58000004 1.5951689e-38
0.019300001 -0.19906574 0.57900006 1.6043885e-38
0.02040286 -0.19906574 0.57900006 1.6043531e-38
0.02146857 -0.1987219 0.57800001 1.6227922e-38
0.022569524 -0.1987219 0.57800001 1.6228276e-38
0.023670476 -0.1987219 0.57800001 1.6412668e-38
0.024771428 -0.1987219 0.57800001 1.6320117e-38
0.02582762 -0.1983781 0.57700002 1.6596704e-38
0.02688 -0.1980343 0.57600003 1.6504858e-38
0.027977144 -0.1980343 0.57600003 1.6597053e-38
0.029023811 -0.19769049 0.57500005 1.6596704e-38
0.030119048 -0.19769049 0.57500005 1.6781096e-38
0.031214288 -0.19769049 0.57500005 1.6781447e-38
0.032309525 -0.19769049 0.57500005 1.7058034e-38
0.033404768 -0.19769049 0.57500005 1.7149511e-38
0.03444 -0.19734667 0.574 1.7149511e-38
0.035533335 -0.19734667 0.574 1.7149878e-38
0.036626667 -0.19734667 0.574 1.7242074e-38
0.037719999 -0.19734667 0.574 1.7334624e-38
0.038813334 -0.19734667 0.574 1.742682e-38
0.039906666 -0.19734667 0.574 1.742682e-38
0.040999997 -0.19734667 0.574 1.7519015e-38
0.042093333 -0.19734667 0.574 1.7519015e-38
0.043186668 -0.19734667 0.574 1.7795602e-38
0.04428 -0.19734667 0.574 1.7703052e-38
0.045373332 -0.19734667 0.574 1.7518661e-38
0.046466667 -0.19734667 0.574 1.7519015e-38
0.047642861 -0.19769049 0.57500005 1.7519015e-38
0.048738096 -0.19769049 0.57500005 1.7518294e-38
0.049833339 -0.19769049 0.57500005 1.7610489e-38
0.050928578 -0.19769049 0.57500005 1.7703404e-38
0.052114289 -0.1980343 0.57600003 1.7703404e-38
0.053303812 -0.1983781 0.57700002 1.7611211e-38
0.054402858 -0.1983781 0.57700002 1.7611211e-38
0.055501904 -0.1983781 0.57700002 1.7611211e-38
0.056600954 -0.1983781 0.57700002 1.7611211e-38
0.057800002 -0.1987219 0.57800001 1.7519375e-38
0.058900952 -0.1987219 0.57800001 1.7611571e-38
0.060105722 -0.19906574 0.57900006 1.7611571e-38
0.061208576 -0.19906574 0.57900006 1.7795962e-38
0.062311437 -0.19906574 0.57900006 1.751938e-38
0.063523814 -0.19940954 0.58000004 1.7427184e-38
0.064740002 -0.19975334 0.58100003 1.7427184e-38
0.065846667 -0.19975334 0.58100003 1.7334988e-38
0.067068577 -0.20009714 0.58200002 1.7519015e-38
0.068177141 -0.20009714 0.58200002 1.7703406e-38
0.069285713 -0.20009714 0.58200002 1.742682e-38
0.070515238 -0.20044094 0.583 1.7242428e-38
0.07187143 -0.20112859 0.58500004 1.7242437e-38
