# .PCD v0.7 - Point Cloud Data file format
VERSION 0.7
FIELDS x y z rgb
SIZE 4 4 4 4
TYPE F F F F
COUNT 1 1 1 1
WIDTH 986
HEIGHT 1
VIEWPOINT 0 0 0 1 0 0 0
POINTS 986
DATA ascii
0.034254286 -0.16045429 0.63100004 1.5582175e-38
0.035456195 -0.16045429 0.63100004 1.5582175e-38
0.036658097 -0.16045429 0.63100004 1.5489627e-38
0.037860002 -0.16045429 0.63100004 1.5489627e-38
0.039061908 -0.16045429 0.63100004 1.5213756e-38
0.040263813 -0.16045429 0.63100004 1.5213756e-38
0.041400004 -0.16020001 0.63000005 1.502973e-38
0.042600002 -0.16020001 0.63000005 1.3831187e-38
0.043800004 -0.16020001 0.63000005 1.4105957e-38
0.044928569 -0.15994573 0.62900001 1.3368392e-38
0.046053335 -0.15969144 0.62800002 1.3091091e-38
0.047249526 -0.15969144 0.62800002 1.2998896e-38
0.048445713 -0.15969144 0.62800002 1.299853e-38
0.049641903 -0.15969144 0.62800002 1.2260965e-38
0.050838094 -0.15969144 0.62800002 1.2443921e-38
0.052117143 -0.15994573 0.62900001 1.2443921e-38
0.053315237 -0.15994573 0.62900001 1.2352079e-38
0.054600004 -0.16020001 0.63000005 1.2352079e-38
0.055888575 -0.16045429 0.63100004 1.2444274e-38
0.057180952 -0.16070858 0.63200003 1.2352079e-38
0.058569524 -0.16121714 0.634 1.2260609e-38
0.061097141 -0.16477714 0.648 1.4381109e-38
0.062331427 -0.16477714 0.648 1.4382203e-38
0.063565716 -0.16477714 0.648 1.4474399e-38
0.064800002 -0.16477714 0.648 1.429179e-38
0.066034287 -0.16477714 0.648 1.429179e-38
0.067268573 -0.16477714 0.648 1.4291067e-38
0.068608582 -0.16503145 0.64900005 1.3737893e-38
0.069844767 -0.16503145 0.64900005 1.3003587e-38
-0.011852382 -0.16530953 0.65500003 1.6504845e-38
-0.010604762 -0.16530953 0.65500003 1.069652e-38
-0.0093428576 -0.16505715 0.65400004 1.1247892e-38
-0.0080847619 -0.16480477 0.65300006 1.2262044e-38
-0.0067885718 -0.16354285 0.648 1.2537552e-38
-0.005537143 -0.16303809 0.64600003 1.2629748e-38
-0.0042933337 -0.16253334 0.64400005 1.2813776e-38
-0.0030666669 -0.16253334 0.64400005 1.2905971e-38
-0.0018371429 -0.16228096 0.64300001 1.2998527e-38
-0.00061142858 -0.16202858 0.64200002 1.336731e-38
0.00061142858 -0.16202858 0.64200002 1.3275114e-38
0.0018314286 -0.1617762 0.64100003 1.3275114e-38
0.0030476192 -0.16152382 0.64000005 1.3367678e-38
0.0042533334 -0.16101906 0.63800001 1.355207e-38
0.0054600001 -0.16076668 0.63700002 1.3736455e-38
0.0066628573 -0.1605143 0.63600004 1.3920846e-38
0.0078742858 -0.1605143 0.63600004 1.3920849e-38
0.0090714293 -0.16026191 0.63500005 1.4105241e-38
0.010280953 -0.16026191 0.63500005 1.4198505e-38
0.011472382 -0.16000952 0.634 1.4290701e-38
0.01268 -0.16000952 0.634 1.4107749e-38
0.013887619 -0.16000952 0.634 1.4107749e-38
0.01504762 -0.15950477 0.63200003 1.4382553e-38
0.01625143 -0.15950477 0.63200003 1.465914e-38
0.017455239 -0.15950477 0.63200003 1.4475825e-38
0.018659048 -0.15950477 0.63200003 1.4475825e-38
0.019862859 -0.15950477 0.63200003 1.4751692e-38
0.021066668 -0.15950477 0.63200003 1.4843887e-38
0.022270476 -0.15950477 0.63200003 1.5027926e-38
0.023474285 -0.15950477 0.63200003 1.5581099e-38
0.02463905 -0.15925239 0.63100004 1.5304866e-38
0.025840953 -0.15925239 0.63100004 1.521267e-38
0.027042858 -0.15925239 0.63100004 1.5121197e-38
0.028244764 -0.15925239 0.63100004 1.5213393e-38
0.029446669 -0.15925239 0.63100004 1.5397781e-38
0.030648574 -0.15925239 0.63100004 1.5489977e-38
0.031850476 -0.15925239 0.63100004 1.5489977e-38
0.033052381 -0.15925239 0.63100004 1.5489977e-38
0.034254286 -0.15925239 0.63100004 1.5673645e-38
0.035456195 -0.15925239 0.63100004 1.5765841e-38
0.036658097 -0.15925239 0.63100004 1.548998e-38
0.037860002 -0.15925239 0.63100004 1.5305589e-38
0.039061908 -0.15925239 0.63100004 1.5305589e-38
0.040263813 -0.15925239 0.63100004 1.5305589e-38
0.041465715 -0.15925239 0.63100004 1.5305591e-38
0.04266762 -0.15925239 0.63100004 1.3830461e-38
0.043869525 -0.15925239 0.63100004 1.3738243e-38
0.045071434 -0.15925239 0.63100004 1.3000678e-38
0.046126667 -0.15874761 0.62900001 1.3183287e-38
0.047324762 -0.15874761 0.62900001 1.3091091e-38
0.048522856 -0.15874761 0.62900001 1.2998174e-38
0.049800005 -0.15900001 0.63000005 1.2721587e-38
0.051000003 -0.15900001 0.63000005 1.281342e-38
0.052282859 -0.15925239 0.63100004 1.2905616e-38
0.053484764 -0.15925239 0.63100004 1.281377e-38
0.054773334 -0.15950477 0.63200003 1.2905966e-38
0.055977143 -0.15950477 0.63200003 1.281342e-38
0.057361905 -0.16000952 0.634 1.2905616e-38
0.058569524 -0.16000952 0.634 1.2814526e-38
0.061097141 -0.16354285 0.648 1.4842829e-38
0.062331427 -0.16354285 0.648 1.4659496e-38
0.063565716 -0.16354285 0.648 1.4382909e-38
0.064900003 -0.16379525 0.64900005 1.4382546e-38
0.066136196 -0.16379525 0.64900005 1.4382546e-38
0.067372382 -0.16379525 0.64900005 1.3922284e-38
0.068608582 -0.16379525 0.64900005 1.3461306e-38
-0.013139999 -0.16456285 0.65700001 2.0378146e-38
-0.011852382 -0.16406192 0.65500003 1.705949e-38
-0.010604762 -0.16406192 0.65500003 1.0790187e-38
-0.0093428576 -0.16381145 0.65400004 1.0510327e-38
-0.0080971438 -0.16381145 0.65400004 1.1985457e-38
-0.0067990478 -0.16255906 0.64900005 1.2537189e-38
-0.0055457144 -0.1620581 0.64700001 1.2629385e-38
-0.004306667 -0.16180763 0.64600003 1.272158e-38
-0.0030666669 -0.16130668 0.64400005 1.2905971e-38
-0.0018371429 -0.16105619 0.64300001 1.272194e-38
-0.00061142858 -0.16080572 0.64200002 1.2998527e-38
0.00061142858 -0.16080572 0.64200002 1.3182921e-38
0.0018342858 -0.16080572 0.64200002 1.3367313e-38
0.0030523811 -0.16055524 0.64100003 1.3275477e-38
0.0042666672 -0.16030477 0.64000005 1.3459868e-38
0.0054685716 -0.15980381 0.63800001 1.3551704e-38
0.0066838097 -0.15980381 0.63800001 1.3736095e-38
0.0078866668 -0.15955333 0.63700002 1.3828654e-38
0.0090857148 -0.15930286 0.63600004 1.4013045e-38
0.010297143 -0.15930286 0.63600004 1.3830089e-38
0.011508572 -0.15930286 0.63600004 1.4198871e-38
0.012700001 -0.1590524 0.63500005 1.40152e-38
0.013909525 -0.1590524 0.63500005 1.4107396e-38
0.015119049 -0.1590524 0.63500005 1.4382909e-38
0.016328571 -0.1590524 0.63500005 1.4659496e-38
0.017538097 -0.1590524 0.63500005 1.4476181e-38
0.018718094 -0.15880191 0.634 1.4568377e-38
0.019925715 -0.15880191 0.634 1.4843524e-38
0.021133333 -0.15880191 0.634 1.4843524e-38
0.022340951 -0.15880191 0.634 1.4935011e-38
0.023474285 -0.15830095 0.63200003 1.5211598e-38
0.024678096 -0.15830095 0.63200003 1.5211954e-38
0.025881905 -0.15830095 0.63200003 1.5211954e-38
0.027085714 -0.15830095 0.63200003 1.530451e-38
0.028289525 -0.15830095 0.63200003 1.5488901e-38
0.029446669 -0.15805049 0.63100004 1.5030437e-38
0.030648574 -0.15805049 0.63100004 1.5214828e-38
0.031850476 -0.15805049 0.63100004 1.5397781e-38
0.033052381 -0.15805049 0.63100004 1.5121195e-38
0.034308571 -0.15830095 0.63200003 1.5212314e-38
0.035512384 -0.15830095 0.63200003 1.5488901e-38
0.036716193 -0.15830095 0.63200003 1.5305591e-38
0.037920002 -0.15830095 0.63200003 1.5305591e-38
0.039123811 -0.15830095 0.63200003 1.5213393e-38
0.04032762 -0.15830095 0.63200003 1.548998e-38
0.041531429 -0.15830095 0.63200003 1.5397434e-38
0.042735238 -0.15830095 0.63200003 1.3737913e-38
0.04393905 -0.15830095 0.63200003 1.3553136e-38
0.045071434 -0.15805049 0.63100004 1.3092158e-38
0.046273336 -0.15805049 0.63100004 1.3091807e-38
0.047475241 -0.15805049 0.63100004 1.2999612e-38
0.048677146 -0.15805049 0.63100004 1.2906334e-38
0.049879052 -0.15805049 0.63100004 1.2906334e-38
0.051161904 -0.15830095 0.63200003 1.281342e-38
0.052365717 -0.15830095 0.63200003 1.281342e-38
0.053739045 -0.15880191 0.634 1.281377e-38
0.055033337 -0.1590524 0.63500005 1.281377e-38
0.056242861 -0.1590524 0.63500005 1.2629748e-38
0.057633337 -0.15955333 0.63700002 1.3090726e-38
0.058939047 -0.15980381 0.63800001 1.3460597e-38
0.061097141 -0.16230856 0.648 1.465914e-38
0.062331427 -0.16230856 0.648 1.4383629e-38
0.063565716 -0.16230856 0.648 1.4107043e-38
0.064800002 -0.16230856 0.648 1.4291067e-38
0.066136196 -0.16255906 0.64900005 1.4106675e-38
0.067372382 -0.16255906 0.64900005 1.3002849e-38
0.068714283 -0.16280954 0.65000004 1.3463827e-38
-0.013139999 -0.16331144 0.65700001 2.0746211e-38
-0.011852382 -0.16281429 0.65500003 1.9823878e-38
-0.010604762 -0.16281429 0.65500003 1.1895054e-38
-0.0093571432 -0.16281429 0.65500003 9.8660436e-39
-0.0080971438 -0.16256572 0.65400004 1.1433369e-38
-0.0068409527 -0.16231716 0.65300006 1.2260602e-38
-0.0055628577 -0.16132286 0.64900005 1.2444993e-38
-0.0043133334 -0.16082571 0.64700001 1.2629379e-38
-0.0030761904 -0.16057715 0.64600003 1.281377e-38
-0.0018371429 -0.15983142 0.64300001 1.281342e-38
-0.00061238097 -0.15983142 0.64300001 1.281342e-38
0.00061142858 -0.15958287 0.64200002 1.2998174e-38
0.0018342858 -0.15958287 0.64200002 1.3274761e-38
0.003057143 -0.15958287 0.64200002 1.3367313e-38
0.0042733336 -0.15933429 0.64100003 1.3459508e-38
0.0054942858 -0.15933429 0.64100003 1.3459871e-38
0.0067047621 -0.15908572 0.64000005 1.3552067e-38
0.0078990478 -0.15858857 0.63800001 1.3736461e-38
0.0091000004 -0.15834001 0.63700002 1.3828656e-38
0.010313334 -0.15834001 0.63700002 1.3553869e-38
0.011508572 -0.15809143 0.63600004 1.3830456e-38
0.012720001 -0.15809143 0.63600004 1.410632e-38
0.01393143 -0.15809143 0.63600004 1.4198515e-38
0.015119049 -0.15784287 0.63500005 1.4474742e-38
0.016328571 -0.15784287 0.63500005 1.4474742e-38
0.017538097 -0.15784287 0.63500005 1.4383629e-38
0.01874762 -0.15784287 0.63500005 1.4475825e-38
0.019957144 -0.15784287 0.63500005 1.4751689e-38
0.021166669 -0.15784287 0.63500005 1.4751689e-38
0.022376193 -0.15784287 0.63500005 1.4843887e-38
0.023548571 -0.15759428 0.634 1.4936083e-38
0.024756189 -0.15759428 0.634 1.4935733e-38
0.025881905 -0.15709715 0.63200003 1.5027928e-38
0.027085714 -0.15709715 0.63200003 1.5120118e-38
0.028289525 -0.15709715 0.63200003 1.5488901e-38
0.029493336 -0.15709715 0.63200003 1.5121195e-38
0.030697145 -0.15709715 0.63200003 1.5121195e-38
0.031900954 -0.15709715 0.63200003 1.51212e-38
0.033104762 -0.15709715 0.63200003 1.51212e-38
0.034308571 -0.15709715 0.63200003 1.5304515e-38
0.035512384 -0.15709715 0.63200003 1.5396711e-38
0.036716193 -0.15709715 0.63200003 1.5396705e-38
0.037920002 -0.15709715 0.63200003 1.530451e-38
0.039123811 -0.15709715 0.63200003 1.5121195e-38
0.04032762 -0.15709715 0.63200003 1.5397781e-38
0.041531429 -0.15709715 0.63200003 1.5121207e-38
0.042735238 -0.15709715 0.63200003 1.3461686e-38
0.04393905 -0.15709715 0.63200003 1.2632268e-38
0.045142859 -0.15709715 0.63200003 1.2632268e-38
0.046273336 -0.15684858 0.63100004 1.2999606e-38
0.047475241 -0.15684858 0.63100004 1.3183997e-38
0.048754286 -0.15709715 0.63200003 1.3184e-38
0.049958095 -0.15709715 0.63200003 1.3184e-38
0.051323809 -0.15759428 0.634 1.3182918e-38
0.052531429 -0.15759428 0.634 1.3090723e-38
0.053823814 -0.15784287 0.63500005 1.3091079e-38
0.055206668 -0.15834001 0.63700002 1.3091079e-38
0.056420002 -0.15834001 0.63700002 1.2723019e-38
0.057633337 -0.15834001 0.63700002 1.3829367e-38
0.058939047 -0.15858857 0.63800001 1.4197446e-38
0.061097141 -0.1610743 0.648 1.4474033e-38
0.062331427 -0.1610743 0.648 1.4382546e-38
0.063565716 -0.1610743 0.648 1.4198155e-38
0.064800002 -0.1610743 0.648 1.4198152e-38
0.066136196 -0.16132286 0.64900005 1.382937e-38
0.067372382 -0.16132286 0.64900005 1.2818102e-38
0.068714283 -0.16157143 0.65000004 1.5583971e-38
-0.013139999 -0.16205999 0.65700001 2.037743e-38
-0.011852382 -0.16156667 0.65500003 2.0008297e-38
-0.010604762 -0.16156667 0.65500003 1.2448256e-38
-0.0093571432 -0.16156667 0.65500003 1.0967725e-38
-0.0080971438 -0.16132002 0.65400004 1.1889681e-38
-0.0068514287 -0.16132002 0.65400004 1.1984728e-38
-0.005597143 -0.16107334 0.65300006 1.216912e-38
-0.0043266667 -0.16008668 0.64900005 1.216912e-38
-0.0030857143 -0.15984 0.648 1.2537902e-38
-0.0018457143 -0.15934667 0.64600003 1.2721943e-38
-0.00061238097 -0.15860666 0.64300001 1.2814139e-38
0.00061238097 -0.15860666 0.64300001 1.2814139e-38
0.0018342858 -0.15836 0.64200002 1.3090726e-38
0.003057143 -0.15836 0.64200002 1.3182921e-38
0.00428 -0.15836 0.64200002 1.3367313e-38
0.0054942858 -0.15811335 0.64100003 1.3367673e-38
0.0067152386 -0.15811335 0.64100003 1.364426e-38
0.0079238098 -0.15786667 0.64000005 1.3461306e-38
0.0091000004 -0.15712667 0.63700002 1.3645697e-38
0.010313334 -0.15712667 0.63700002 1.3737537e-38
0.011526668 -0.15712667 0.63700002 1.4014124e-38
0.012720001 -0.15688001 0.63600004 1.4013764e-38
0.01393143 -0.15688001 0.63600004 1.4105959e-38
0.015142857 -0.15688001 0.63600004 1.4290711e-38
0.016354287 -0.15688001 0.63600004 1.4382906e-38
0.017565714 -0.15688001 0.63600004 1.4107043e-38
0.01874762 -0.15663335 0.63500005 1.4383629e-38
0.019957144 -0.15663335 0.63500005 1.4567298e-38
0.021166669 -0.15663335 0.63500005 1.4751689e-38
0.022376193 -0.15663335 0.63500005 1.4843887e-38
0.023585714 -0.15663335 0.63500005 1.4843887e-38
0.02479524 -0.15663335 0.63500005 1.4843537e-38
0.025963809 -0.15638666 0.634 1.4843537e-38
0.027171429 -0.15638666 0.634 1.493573e-38
0.028379047 -0.15638666 0.634 1.5304512e-38
0.029586667 -0.15638666 0.634 1.5121195e-38
0.030794285 -0.15638666 0.634 1.5028999e-38
0.032001905 -0.15638666 0.634 1.5212314e-38
0.033209521 -0.15638666 0.634 1.5212314e-38
0.034417141 -0.15638666 0.634 1.5304512e-38
0.035624765 -0.15638666 0.634 1.5396708e-38
0.036890481 -0.15663335 0.63500005 1.51212e-38
0.038100004 -0.15663335 0.63500005 1.5029005e-38
0.039309524 -0.15663335 0.63500005 1.5212314e-38
0.040455237 -0.15638666 0.634 1.5488901e-38
0.041662857 -0.15638666 0.634 1.4844623e-38
0.042870477 -0.15638666 0.634 1.2631928e-38
0.04393905 -0.15589334 0.63200003 1.2630824e-38
0.045142859 -0.15589334 0.63200003 1.2723019e-38
0.046346668 -0.15589334 0.63200003 1.2723741e-38
0.047550477 -0.15589334 0.63200003 1.3184719e-38
0.048754286 -0.15589334 0.63200003 1.3184719e-38
0.050116193 -0.15638666 0.634 1.3184719e-38
0.051323809 -0.15638666 0.634 1.3276549e-38
0.052531429 -0.15638666 0.634 1.3184353e-38
0.053823814 -0.15663335 0.63500005 1.2815215e-38
0.055206668 -0.15712667 0.63700002 1.2815215e-38
0.056420002 -0.15712667 0.63700002 1.2723385e-38
0.057633337 -0.15712667 0.63700002 1.4198515e-38
0.059862856 -0.15984 0.648 1.4382906e-38
0.061097141 -0.15984 0.648 1.4382906e-38
0.062331427 -0.15984 0.648 1.4289632e-38
0.063663818 -0.16008668 0.64900005 1.4197436e-38
0.064900003 -0.16008668 0.64900005 1.4105957e-38
0.066136196 -0.16008668 0.64900005 1.3368392e-38
0.067476198 -0.16033334 0.65000004 1.2173811e-38
0.068714283 -0.16033334 0.65000004 1.7336767e-38
-0.011888571 -0.16080856 0.65700001 2.0837688e-38
-0.010637143 -0.16080856 0.65700001 1.6227908e-38
-0.0093571432 -0.16031905 0.65500003 1.1800056e-38
-0.0081095239 -0.16031905 0.65500003 1.106249e-38
-0.0068514287 -0.16007431 0.65400004 1.1707776e-38
-0.005597143 -0.15982954 0.65300006 1.2168754e-38
-0.0043466669 -0.15958476 0.65200001 1.2260596e-38
-0.0030904766 -0.15885049 0.64900005 1.2352792e-38
-0.0018485714 -0.15836096 0.64700001 1.2445e-38
-0.00061333337 -0.15762667 0.64400005 1.2813783e-38
0.00061238097 -0.15738191 0.64300001 1.2814136e-38
0.0018342858 -0.15713714 0.64200002 1.2906332e-38
0.003057143 -0.15713714 0.64200002 1.2815221e-38
0.00428 -0.15713714 0.64200002 1.3091807e-38
0.0054942858 -0.15689239 0.64100003 1.3276549e-38
0.0067152386 -0.15689239 0.64100003 1.346094e-38
0.0079238098 -0.15664762 0.64000005 1.3552064e-38
0.009142857 -0.15664762 0.64000005 1.3736455e-38
0.010313334 -0.15591334 0.63700002 1.3737893e-38
0.011526668 -0.15591334 0.63700002 1.3830089e-38
0.012720001 -0.15566859 0.63600004 1.3921568e-38
0.01393143 -0.15566859 0.63600004 1.4013764e-38
0.015142857 -0.15566859 0.63600004 1.4290345e-38
0.016354287 -0.15566859 0.63600004 1.4382541e-38
0.017565714 -0.15566859 0.63600004 1.4290711e-38
0.018777143 -0.15566859 0.63600004 1.4382906e-38
0.019957144 -0.15542382 0.63500005 1.4475458e-38
0.021166669 -0.15542382 0.63500005 1.4659849e-38
0.022376193 -0.15542382 0.63500005 1.4659493e-38
0.023585714 -0.15542382 0.63500005 1.4659493e-38
0.02479524 -0.15542382 0.63500005 1.4751341e-38
0.026004763 -0.15542382 0.63500005 1.4843537e-38
0.027214289 -0.15542382 0.63500005 1.4568389e-38
0.028423812 -0.15542382 0.63500005 1.4752781e-38
0.029633334 -0.15542382 0.63500005 1.4844973e-38
0.030842859 -0.15542382 0.63500005 1.4844973e-38
0.032052383 -0.15542382 0.63500005 1.4844976e-38
0.033261906 -0.15542382 0.63500005 1.4844976e-38
0.03447143 -0.15542382 0.63500005 1.4936453e-38
0.035680957 -0.15542382 0.63500005 1.5120844e-38
0.036890481 -0.15542382 0.63500005 1.5029002e-38
0.038100004 -0.15542382 0.63500005 1.4936806e-38
0.039309524 -0.15542382 0.63500005 1.5212314e-38
0.040519048 -0.15542382 0.63500005 1.5488901e-38
0.041728575 -0.15542382 0.63500005 1.4844623e-38
0.042938098 -0.15542382 0.63500005 1.2631928e-38
0.044078097 -0.15517905 0.634 1.1894353e-38
0.045285713 -0.15517905 0.634 1.1894353e-38
0.046346668 -0.15468954 0.63200003 1.2630476e-38
0.047550477 -0.15468954 0.63200003 1.3368041e-38
0.048908573 -0.15517905 0.634 1.3736095e-38
0.050195243 -0.15542382 0.63500005 1.3828291e-38
0.051404767 -0.15542382 0.63500005 1.3552407e-38
0.052614287 -0.15542382 0.63500005 1.3644603e-38
0.053908575 -0.15566859 0.63600004 1.2999612e-38
0.055206668 -0.15591334 0.63700002 1.2815221e-38
0.056420002 -0.15591334 0.63700002 1.2815605e-38
0.057633337 -0.15591334 0.63700002 1.4014148e-38
0.059862856 -0.15860571 0.648 1.4198868e-38
0.061097141 -0.15860571 0.648 1.4014477e-38
0.062331427 -0.15860571 0.648 1.4105959e-38
0.063663818 -0.15885049 0.64900005 1.4105959e-38
0.064999998 -0.15909524 0.65000004 1.3921568e-38
0.066238098 -0.15909524 0.65000004 1.2815221e-38
0.067683809 -0.15958476 0.65200001 1.2358558e-38
0.068925716 -0.15958476 0.65200001 1.8351274e-38
-0.011888571 -0.15955715 0.65700001 2.1297935e-38
-0.010637143 -0.15955715 0.65700001 1.6872544e-38
-0.0093857143 -0.15955715 0.65700001 1.4749544e-38
-0.0081095239 -0.15907143 0.65500003 1.1430501e-38
-0.0068619051 -0.15907143 0.65500003 1.1430836e-38
-0.0056057149 -0.15882857 0.65400004 1.2076205e-38
-0.0043533337 -0.15858573 0.65300006 1.2168401e-38
-0.0031047619 -0.15834287 0.65200001 1.2168401e-38
-0.0018514285 -0.15737143 0.648 1.2168769e-38
-0.0006152381 -0.15688573 0.64600003 1.2629748e-38
0.00061333337 -0.15640001 0.64400005 1.2906688e-38
0.0018371429 -0.15615714 0.64300001 1.2814492e-38
0.003057143 -0.15591429 0.64200002 1.2538631e-38
0.00428 -0.15591429 0.64200002 1.3091805e-38
0.0055028573 -0.15591429 0.64200002 1.3091802e-38
0.0067152386 -0.15567143 0.64100003 1.3091802e-38
0.0079361908 -0.15567143 0.64100003 1.3091805e-38
0.009142857 -0.15542859 0.64000005 1.3460587e-38
0.010329524 -0.15494286 0.63800001 1.3644262e-38
0.011544761 -0.15494286 0.63800001 1.3828654e-38
0.012740001 -0.15470001 0.63700002 1.3920849e-38
0.013953334 -0.15470001 0.63700002 1.4013045e-38
0.015166666 -0.15470001 0.63700002 1.401448e-38
0.016380001 -0.15470001 0.63700002 1.4198871e-38
0.017593335 -0.15470001 0.63700002 1.4015203e-38
0.018777143 -0.15445715 0.63600004 1.4199594e-38
0.019988572 -0.15445715 0.63600004 1.429179e-38
0.021200001 -0.15445715 0.63600004 1.4383985e-38
0.02241143 -0.15445715 0.63600004 1.4383629e-38
0.023622857 -0.15445715 0.63600004 1.4383629e-38
0.024834288 -0.15445715 0.63600004 1.4659146e-38
0.026045715 -0.15445715 0.63600004 1.4659146e-38
0.027257143 -0.15445715 0.63600004 1.4476194e-38
0.028468573 -0.15445715 0.63600004 1.4752781e-38
0.029633334 -0.15421431 0.63500005 1.4661654e-38
0.030842859 -0.15421431 0.63500005 1.475385e-38
0.032052383 -0.15421431 0.63500005 1.4844973e-38
0.033261906 -0.15421431 0.63500005 1.4844973e-38
0.03447143 -0.15421431 0.63500005 1.4844973e-38
0.035680957 -0.15421431 0.63500005 1.5029365e-38
0.036890481 -0.15421431 0.63500005 1.4937169e-38
0.038100004 -0.15421431 0.63500005 1.4937169e-38
0.039309524 -0.15421431 0.63500005 1.4845329e-38
0.040519048 -0.15421431 0.63500005 1.5121916e-38
0.041728575 -0.15421431 0.63500005 1.4660585e-38
0.042938098 -0.15421431 0.63500005 1.2724477e-38
0.044147622 -0.15421431 0.63500005 1.1986176e-38
0.045357145 -0.15421431 0.63500005 1.189398e-38
0.046493333 -0.15397142 0.634 1.2444993e-38
0.047700949 -0.15397142 0.634 1.3459145e-38
0.04898572 -0.15421431 0.63500005 1.3551338e-38
0.050195243 -0.15421431 0.63500005 1.3827925e-38
0.051404767 -0.15421431 0.63500005 1.3553136e-38
0.052697148 -0.15445715 0.63600004 1.3092158e-38
0.053993333 -0.15470001 0.63700002 1.2999609e-38
0.055206668 -0.15470001 0.63700002 1.3737174e-38
0.057040006 -0.15640001 0.64400005 1.3370559e-38
0.05862857 -0.15737143 0.648 1.3739342e-38
0.059862856 -0.15737143 0.648 1.3923007e-38
0.061191436 -0.15761429 0.64900005 1.3830812e-38
0.062427621 -0.15761429 0.64900005 1.4105957e-38
0.063761905 -0.15785715 0.65000004 1.3921565e-38
0.065200001 -0.15834287 0.65200001 1.3276915e-38
0.066543818 -0.15858573 0.65300006 1.3000328e-38
0.067787625 -0.15858573 0.65300006 1.3739006e-38
0.06903144 -0.15858573 0.65300006 1.9362939e-38
-0.010653334 -0.15854667 0.65800005 1.6320074e-38
-0.0093857143 -0.15830572 0.65700001 1.4934626e-38
-0.0081342859 -0.15830572 0.65700001 1.1062409e-38
-0.0068619051 -0.15782382 0.65500003 1.1062419e-38
-0.0056057149 -0.15758286 0.65400004 1.1707788e-38
-0.0043533337 -0.15734191 0.65300006 1.1707788e-38
-0.0031047619 -0.15710096 0.65200001 1.189218e-38
-0.0018542858 -0.15637811 0.64900005 1.1891829e-38
-0.00061714282 -0.15613714 0.648 1.2352807e-38
0.0006152381 -0.15565524 0.64600003 1.2630448e-38
0.0018371429 -0.15493238 0.64300001 1.2722644e-38
0.0030619048 -0.15493238 0.64300001 1.2814489e-38
0.0042866664 -0.15493238 0.64300001 1.2906685e-38
0.0055028573 -0.15469144 0.64200002 1.3183274e-38
0.0067152386 -0.15445048 0.64100003 1.327547e-38
0.0079361908 -0.15445048 0.64100003 1.3183287e-38
0.0091571435 -0.15445048 0.64100003 1.3367678e-38
0.010361905 -0.15420954 0.64000005 1.3460587e-38
0.011580953 -0.15420954 0.64000005 1.3552783e-38
0.01276 -0.15372762 0.63800001 1.3736455e-38
0.013953334 -0.15348667 0.63700002 1.3920846e-38
0.015166666 -0.15348667 0.63700002 1.3922284e-38
0.016380001 -0.15348667 0.63700002 1.401448e-38
0.017593335 -0.15348667 0.63700002 1.410632e-38
0.018806668 -0.15348667 0.63700002 1.4198515e-38
0.020019999 -0.15348667 0.63700002 1.4107043e-38
0.021233333 -0.15348667 0.63700002 1.4291434e-38
0.022446666 -0.15348667 0.63700002 1.4291434e-38
0.02366 -0.15348667 0.63700002 1.4383629e-38
0.024873333 -0.15348667 0.63700002 1.456695e-38
0.026045715 -0.15324572 0.63600004 1.4659146e-38
0.027257143 -0.15324572 0.63600004 1.4568386e-38
0.028468573 -0.15324572 0.63600004 1.4752778e-38
0.029680001 -0.15324572 0.63600004 1.4660932e-38
0.03089143 -0.15324572 0.63600004 1.4753128e-38
0.032102857 -0.15324572 0.63600004 1.4752778e-38
0.033314288 -0.15324572 0.63600004 1.4844973e-38
0.034525715 -0.15324572 0.63600004 1.4844973e-38
0.035737146 -0.15324572 0.63600004 1.4844973e-38
0.036948573 -0.15324572 0.63600004 1.4844973e-38
0.03816 -0.15324572 0.63600004 1.4844973e-38
0.039371431 -0.15324572 0.63600004 1.5028276e-38
0.040582858 -0.15324572 0.63600004 1.5028276e-38
0.041794289 -0.15324572 0.63600004 1.5028279e-38
0.043005716 -0.15324572 0.63600004 1.3368757e-38
0.044217143 -0.15324572 0.63600004 1.1802861e-38
0.045357145 -0.15300478 0.63500005 9.4057745e-39
0.046566669 -0.15300478 0.63500005 1.0141194e-38
0.047776196 -0.15300478 0.63500005 1.1616324e-38
0.049062859 -0.15324572 0.63600004 1.226094e-38
0.050274286 -0.15324572 0.63600004 1.2629722e-38
0.051566668 -0.15348667 0.63700002 1.2262044e-38
0.052780002 -0.15348667 0.63700002 1.1893261e-38
0.053993333 -0.15348667 0.63700002 1.2354249e-38
0.055813335 -0.15517333 0.64400005 1.3921575e-38
0.057040006 -0.15517333 0.64400005 1.4198871e-38
0.058538094 -0.1558962 0.64700001 1.401448e-38
0.059862856 -0.15613714 0.648 1.4105966e-38
0.061285719 -0.15661906 0.65000004 1.4013771e-38
0.062523812 -0.15661906 0.65000004 1.4105231e-38
0.063958094 -0.15710096 0.65200001 1.3828644e-38
0.065300003 -0.15734191 0.65300006 1.3459868e-38
0.066645719 -0.15758286 0.65400004 1.5027194e-38
0.067891434 -0.15758286 0.65400004 1.5489669e-38
-0.0094000008 -0.15729335 0.65800005 1.3462733e-38
-0.0081342859 -0.15705428 0.65700001 1.0789059e-38
-0.0068828571 -0.15705428 0.65700001 1.1246813e-38
-0.0056142863 -0.1565762 0.65500003 1.15234e-38
-0.0043600001 -0.15633714 0.65400004 1.1707423e-38
-0.003109524 -0.15609811 0.65300006 1.1891814e-38
-0.0018628573 -0.15585905 0.65200001 1.189218e-38
-0.00061809528 -0.15514192 0.64900005 1.2353158e-38
0.00061619049 -0.15466382 0.64700001 1.2353864e-38
0.0018457143 -0.15442477 0.64600003 1.2538255e-38
0.0030761904 -0.15442477 0.64600003 1.2629745e-38
0.0042866664 -0.15370762 0.64300001 1.2629745e-38
0.0055114287 -0.15370762 0.64300001 1.2721943e-38
0.0067257145 -0.15346856 0.64200002 1.3090726e-38
0.0079485718 -0.15346856 0.64200002 1.2999612e-38
0.0091571435 -0.15322953 0.64100003 1.2999612e-38
0.010361905 -0.15299049 0.64000005 1.3276196e-38
0.011580953 -0.15299049 0.64000005 1.3460587e-38
0.01276 -0.15251239 0.63800001 1.3461306e-38
0.013975237 -0.15251239 0.63800001 1.3461306e-38
0.015190477 -0.15251239 0.63800001 1.3645697e-38
0.016405715 -0.15251239 0.63800001 1.3922284e-38
0.017620953 -0.15251239 0.63800001 1.401448e-38
0.018806668 -0.15227334 0.63700002 1.3922284e-38
0.020019999 -0.15227334 0.63700002 1.3922651e-38
0.021233333 -0.15227334 0.63700002 1.4291434e-38
0.022446666 -0.15227334 0.63700002 1.4291434e-38
0.02366 -0.15227334 0.63700002 1.4291434e-38
0.024873333 -0.15227334 0.63700002 1.4566947e-38
0.026086668 -0.15227334 0.63700002 1.4659143e-38
0.0273 -0.15227334 0.63700002 1.4751339e-38
0.028513335 -0.15227334 0.63700002 1.4751339e-38
0.029726667 -0.15227334 0.63700002 1.45673e-38
0.03094 -0.15227334 0.63700002 1.4843887e-38
0.032153334 -0.15227334 0.63700002 1.493573e-38
0.033314288 -0.1520343 0.63600004 1.5027926e-38
0.034525715 -0.1520343 0.63600004 1.4752778e-38
0.035793334 -0.15227334 0.63700002 1.4844973e-38
0.037006669 -0.15227334 0.63700002 1.4844973e-38
0.03822 -0.15227334 0.63700002 1.4844973e-38
0.039433334 -0.15227334 0.63700002 1.493573e-38
0.040646669 -0.15227334 0.63700002 1.5027926e-38
0.041860003 -0.15227334 0.63700002 1.5028276e-38
0.043073334 -0.15227334 0.63700002 1.3829733e-38
0.044286668 -0.15227334 0.63700002 1.207947e-38
0.045428574 -0.1520343 0.63600004 9.2214057e-39
0.046640005 -0.1520343 0.63600004 9.4950807e-39
0.047851432 -0.1520343 0.63600004 1.0048254e-38
0.049217142 -0.15251239 0.63800001 1.133681e-38
0.050353333 -0.15227334 0.63700002 1.1889984e-38
0.051566668 -0.15227334 0.63700002 1.1247889e-38
0.052780002 -0.15227334 0.63700002 1.1893259e-38
0.054417145 -0.15346856 0.64200002 1.2446438e-38
0.055986669 -0.15442477 0.64600003 1.4105959e-38
0.057305716 -0.15466382 0.64700001 1.4105957e-38
0.058538094 -0.15466382 0.64700001 1.3921565e-38
0.059862856 -0.15490285 0.648 1.4013045e-38
0.061285719 -0.15538096 0.65000004 1.3828654e-38
0.062523812 -0.15538096 0.65000004 1.3827925e-38
0.063958094 -0.15585905 0.65200001 1.3643534e-38
0.065300003 -0.15609811 0.65300006 1.327547e-38
0.066645719 -0.15633714 0.65400004 1.4934991e-38
-0.0094000008 -0.15604001 0.65800005 1.3275792e-38
-0.0081466679 -0.15604001 0.65800005 1.1708467e-38
-0.0068828571 -0.15580286 0.65700001 1.1523044e-38
-0.0056314287 -0.15580286 0.65700001 1.161524e-38
-0.0043666665 -0.15532857 0.65500003 1.1708132e-38
-0.0031142859 -0.15509143 0.65400004 1.1892523e-38
-0.0018657143 -0.1548543 0.65300006 1.1984363e-38
-0.0006209524 -0.15461715 0.65200001 1.226095e-38
0.00061809528 -0.15390572 0.64900005 1.2353498e-38
0.0018485714 -0.15343143 0.64700001 1.2445694e-38
0.0030809524 -0.15343143 0.64700001 1.2537902e-38
0.0042933337 -0.15272002 0.64400005 1.2537902e-38
0.0055114287 -0.15248285 0.64300001 1.2446438e-38
0.0067257145 -0.15224572 0.64200002 1.2723025e-38
0.0079485718 -0.15224572 0.64200002 1.2723025e-38
0.0091714282 -0.15224572 0.64200002 1.2815221e-38
0.010378095 -0.15200858 0.64100003 1.3276549e-38
0.011599048 -0.15200858 0.64100003 1.3276549e-38
0.012800001 -0.15177144 0.64000005 1.3459868e-38
0.014019049 -0.15177144 0.64000005 1.3552064e-38
0.015238097 -0.15177144 0.64000005 1.3553499e-38
0.016457144 -0.15177144 0.64000005 1.373789e-38
0.017620953 -0.15129714 0.63800001 1.3922279e-38
0.018836191 -0.15129714 0.63800001 1.3922279e-38
0.020051429 -0.15129714 0.63800001 1.4013771e-38
0.021233333 -0.15106 0.63700002 1.4290358e-38
0.022446666 -0.15106 0.63700002 1.4199594e-38
0.02366 -0.15106 0.63700002 1.4199594e-38
0.024873333 -0.15106 0.63700002 1.4475102e-38
0.026086668 -0.15106 0.63700002 1.4567298e-38
0.0273 -0.15106 0.63700002 1.45673e-38
0.028513335 -0.15106 0.63700002 1.45673e-38
0.029726667 -0.15106 0.63700002 1.4291802e-38
0.03094 -0.15106 0.63700002 1.4568389e-38
0.032153334 -0.15106 0.63700002 1.4843887e-38
0.033366665 -0.15106 0.63700002 1.4936083e-38
0.03458 -0.15106 0.63700002 1.4752778e-38
0.035793334 -0.15106 0.63700002 1.4660582e-38
0.037006669 -0.15106 0.63700002 1.4752778e-38
0.03822 -0.15106 0.63700002 1.4660582e-38
0.039433334 -0.15106 0.63700002 1.4843534e-38
0.040646669 -0.15106 0.63700002 1.4751339e-38
0.041860003 -0.15106 0.63700002 1.4751326e-38
0.043073334 -0.15106 0.63700002 1.4566935e-38
0.044286668 -0.15106 0.63700002 1.327804e-38
0.045500003 -0.15106 0.63700002 1.0880954e-38
0.046713337 -0.15106 0.63700002 8.9433839e-39
0.047926668 -0.15106 0.63700002 8.9433839e-39
0.049371433 -0.15177144 0.64000005 1.0048229e-38
0.050432384 -0.15129714 0.63800001 1.087799e-38
0.051647618 -0.15129714 0.63800001 1.1431577e-38
0.052862857 -0.15129714 0.63800001 1.3459881e-38
0.054586671 -0.15272002 0.64400005 1.3828651e-38
0.055986669 -0.15319429 0.64600003 1.4381825e-38
0.057305716 -0.15343143 0.64700001 1.4013395e-38
0.058538094 -0.15343143 0.64700001 1.3829004e-38
0.059862856 -0.15366857 0.648 1.3829007e-38
0.06147429 -0.15461715 0.65200001 1.3829007e-38
0.062716186 -0.15461715 0.65200001 1.3643534e-38
0.063958094 -0.15461715 0.65200001 1.3551338e-38
-0.0094428575 -0.15549238 0.66100001 1.3551313e-38
-0.0081590479 -0.15502191 0.65900004 1.1983987e-38
-0.00690381 -0.15502191 0.65900004 1.1707428e-38
-0.0056400001 -0.15478668 0.65800005 1.1430841e-38
-0.0043799998 -0.15455143 0.65700001 1.1523024e-38
-0.0031190477 -0.15408096 0.65500003 1.1799611e-38
-0.0018685715 -0.15384573 0.65400004 1.1708132e-38
-0.0006209524 -0.15337524 0.65200001 1.1800327e-38
0.00061904767 -0.15290476 0.65000004 1.1892167e-38
0.0018542858 -0.15266953 0.64900005 1.2168754e-38
0.0030857143 -0.15243429 0.648 1.2537183e-38
0.004306667 -0.15196382 0.64600003 1.2537183e-38
0.0055200006 -0.15149334 0.64400005 1.2169848e-38
0.0067361905 -0.1512581 0.64300001 1.2538631e-38
0.0079609528 -0.1512581 0.64300001 1.2630827e-38
0.0091857146 -0.1512581 0.64300001 1.2907413e-38
0.010394286 -0.15102287 0.64200002 1.3091802e-38
0.011617143 -0.15102287 0.64200002 1.3276193e-38
0.01282 -0.15078762 0.64100003 1.3184363e-38
0.014040953 -0.15078762 0.64100003 1.3368754e-38
0.015261906 -0.15078762 0.64100003 1.346095e-38
0.016482858 -0.15078762 0.64100003 1.3645341e-38
0.017676191 -0.15055239 0.64000005 1.3646418e-38
0.018895241 -0.15055239 0.64000005 1.3646418e-38
0.020114286 -0.15055239 0.64000005 1.3646064e-38
0.021266667 -0.1500819 0.63800001 1.3922651e-38
0.022481905 -0.1500819 0.63800001 1.410632e-38
0.023697143 -0.1500819 0.63800001 1.4198515e-38
0.024912382 -0.1500819 0.63800001 1.4290711e-38
0.026086668 -0.14984667 0.63700002 1.4382906e-38
0.0273 -0.14984667 0.63700002 1.4382553e-38
0.028513335 -0.14984667 0.63700002 1.4382553e-38
0.029726667 -0.14984667 0.63700002 1.45673e-38
0.03094 -0.14984667 0.63700002 1.4843887e-38
0.032203808 -0.1500819 0.63800001 1.4476544e-38
0.033419047 -0.1500819 0.63800001 1.456874e-38
0.034634285 -0.1500819 0.63800001 1.4568386e-38
0.035849527 -0.1500819 0.63800001 1.4568386e-38
0.037064761 -0.1500819 0.63800001 1.4568389e-38
0.038279999 -0.1500819 0.63800001 1.4568389e-38
0.039433334 -0.14984667 0.63700002 1.4568036e-38
0.040646669 -0.14984667 0.63700002 1.4475841e-38
0.041925713 -0.1500819 0.63800001 1.4659496e-38
0.043276191 -0.15055239 0.64000005 1.4475105e-38
0.044495244 -0.15055239 0.64000005 1.4291449e-38
0.045785714 -0.15078762 0.64100003 1.1894363e-38
0.047006667 -0.15078762 0.64100003 1.1522681e-38
0.048378095 -0.1512581 0.64300001 1.1153899e-38
0.049525715 -0.15102287 0.64200002 1.0417037e-38
0.050669525 -0.15078762 0.64100003 1.1062406e-38
0.051890481 -0.15078762 0.64100003 1.2905255e-38
0.053194284 -0.15102287 0.64200002 1.4195994e-38
0.054586671 -0.15149334 0.64400005 1.4013764e-38
0.056073334 -0.15219904 0.64700001 1.4013764e-38
0.057305716 -0.15219904 0.64700001 1.3829367e-38
0.058538094 -0.15219904 0.64700001 1.3737171e-38
0.059862856 -0.15243429 0.648 1.3829007e-38
0.06147429 -0.15337524 0.65200001 1.3644616e-38
0.062716186 -0.15337524 0.65200001 1.3459142e-38
0.063958094 -0.15337524 0.65200001 1.3366947e-38
-0.0081838099 -0.15423334 0.66100001 1.2813397e-38
-0.00690381 -0.15376668 0.65900004 1.1707428e-38
-0.0056485715 -0.15376668 0.65900004 1.1154255e-38
-0.0043866672 -0.15353334 0.65800005 1.133828e-38
-0.0031285714 -0.1533 0.65700001 1.1522671e-38
-0.0018714287 -0.15283334 0.65500003 1.1615217e-38
-0.00062190479 -0.15236668 0.65300006 1.1799608e-38
0.0006209524 -0.15213333 0.65200001 1.1799624e-38
0.0018571429 -0.15166669 0.65000004 1.189182e-38
0.0030952382 -0.15166669 0.65000004 1.226095e-38
0.0043200003 -0.1512 0.648 1.2445341e-38
0.0055457144 -0.15096666 0.64700001 1.2353161e-38
0.006746667 -0.15026668 0.64400005 1.2537552e-38
0.0079733338 -0.15026668 0.64400005 1.2721943e-38
0.0092000002 -0.15026668 0.64400005 1.2906334e-38
0.010394286 -0.1498 0.64200002 1.2907767e-38
0.011617143 -0.1498 0.64200002 1.3092158e-38
0.01284 -0.1498 0.64200002 1.3091807e-38
0.014040953 -0.14956668 0.64100003 1.3276199e-38
0.015261906 -0.14956668 0.64100003 1.3184366e-38
0.016482858 -0.14956668 0.64100003 1.3276562e-38
0.017703811 -0.14956668 0.64100003 1.346095e-38
0.018924762 -0.14956668 0.64100003 1.3737537e-38
0.020145716 -0.14956668 0.64100003 1.3737537e-38
0.021333335 -0.14933334 0.64000005 1.3921928e-38
0.022552382 -0.14933334 0.64000005 1.4014477e-38
0.023771429 -0.14933334 0.64000005 1.4106673e-38
0.024912382 -0.14886667 0.63800001 1.4198155e-38
0.026086668 -0.14863333 0.63700002 1.4290351e-38
0.0273 -0.14863333 0.63700002 1.4290714e-38
0.028513335 -0.14863333 0.63700002 1.4290714e-38
0.029773334 -0.14886667 0.63800001 1.4291434e-38
0.030988572 -0.14886667 0.63800001 1.4568021e-38
0.032203808 -0.14886667 0.63800001 1.4751689e-38
0.033419047 -0.14886667 0.63800001 1.4751689e-38
0.034634285 -0.14886667 0.63800001 1.4751692e-38
0.035849527 -0.14886667 0.63800001 1.4751692e-38
0.037064761 -0.14886667 0.63800001 1.4476194e-38
0.038279999 -0.14886667 0.63800001 1.4476194e-38
0.039495237 -0.14886667 0.63800001 1.465988e-38
0.040710479 -0.14886667 0.63800001 1.4475489e-38
0.042057145 -0.14933334 0.64000005 1.4751692e-38
0.043343812 -0.14956668 0.64100003 1.4659496e-38
0.044564765 -0.14956668 0.64100003 1.4382553e-38
0.045857143 -0.1498 0.64200002 1.4382553e-38
0.047226671 -0.15026668 0.64400005 1.438219e-38
0.048453335 -0.15026668 0.64400005 1.4197799e-38
0.049680006 -0.15026668 0.64400005 1.4288913e-38
0.050906669 -0.15026668 0.64400005 1.4288913e-38
0.052133337 -0.15026668 0.64400005 1.4013048e-38
0.053360004 -0.15026668 0.64400005 1.4013048e-38
0.054840952 -0.15096666 0.64700001 1.382937e-38
0.056159999 -0.1512 0.648 1.3737174e-38
0.057394285 -0.1512 0.648 1.3828651e-38
0.058719054 -0.15143333 0.64900005 1.3736455e-38
0.060047623 -0.15166669 0.65000004 1.3643899e-38
0.06147429 -0.15213333 0.65200001 1.3275117e-38
0.06281238 -0.15236668 0.65300006 1.3182558e-38
0.064056195 -0.15236668 0.65300006 1.3182558e-38
-0.00690381 -0.15251143 0.65900004 1.198401e-38
-0.0056485715 -0.15251143 0.65900004 1.1062053e-38
-0.0043866672 -0.15228 0.65800005 1.1246438e-38
-0.0031285714 -0.15204857 0.65700001 1.1338633e-38
-0.0018714287 -0.15158573 0.65500003 1.1338633e-38
-0.00062285719 -0.1513543 0.65400004 1.1523024e-38
0.00062190479 -0.15112287 0.65300006 1.1799611e-38
0.0018628573 -0.15089144 0.65200001 1.1891807e-38
0.0031047619 -0.15089144 0.65200001 1.1891814e-38
0.0043333336 -0.15042858 0.65000004 1.2076205e-38
0.0055542854 -0.14996572 0.648 1.2260246e-38
0.0067780954 -0.14973429 0.64700001 1.2444637e-38
0.0080104759 -0.14973429 0.64700001 1.2537552e-38
0.0092285722 -0.14950287 0.64600003 1.2629748e-38
0.010426668 -0.14904001 0.64400005 1.2446438e-38
0.011635238 -0.14880858 0.64300001 1.2907416e-38
0.01284 -0.14857715 0.64200002 1.3091805e-38
0.014062857 -0.14857715 0.64200002 1.3184e-38
0.015285715 -0.14857715 0.64200002 1.3184003e-38
0.016508572 -0.14857715 0.64200002 1.3368394e-38
0.017731428 -0.14857715 0.64200002 1.3276199e-38
0.018954286 -0.14857715 0.64200002 1.3368394e-38
0.020145716 -0.14834571 0.64100003 1.3828654e-38
0.021366667 -0.14834571 0.64100003 1.4105241e-38
0.02258762 -0.14834571 0.64100003 1.3922284e-38
0.023808572 -0.14834571 0.64100003 1.3922284e-38
0.024990477 -0.14811429 0.64000005 1.4105959e-38
0.02612762 -0.14765142 0.63800001 1.4198155e-38
0.027342858 -0.14765142 0.63800001 1.4014847e-38
0.028558096 -0.14765142 0.63800001 1.4014847e-38
0.029773334 -0.14765142 0.63800001 1.4198162e-38
0.030988572 -0.14765142 0.63800001 1.4382553e-38
0.032203808 -0.14765142 0.63800001 1.4382553e-38
0.033419047 -0.14765142 0.63800001 1.4474749e-38
0.034634285 -0.14765142 0.63800001 1.4383629e-38
0.035961907 -0.14811429 0.64000005 1.4383629e-38
0.037180953 -0.14811429 0.64000005 1.4659143e-38
0.038279999 -0.14765142 0.63800001 1.4659143e-38
0.039495237 -0.14765142 0.63800001 1.465879e-38
0.0408381 -0.14811429 0.64000005 1.465879e-38
0.04212286 -0.14834571 0.64100003 1.4658424e-38
0.04341143 -0.14857715 0.64200002 1.4658424e-38
0.044634286 -0.14857715 0.64200002 1.45673e-38
0.045928571 -0.14880858 0.64300001 1.45673e-38
0.047226671 -0.14904001 0.64400005 1.4566582e-38
0.04860381 -0.14950287 0.64600003 1.4474386e-38
0.049834289 -0.14950287 0.64600003 1.4290351e-38
0.051064763 -0.14950287 0.64600003 1.4198155e-38
0.052295242 -0.14950287 0.64600003 1.3828654e-38
0.053525716 -0.14950287 0.64600003 1.3828654e-38
0.054925714 -0.14996572 0.648 1.3828651e-38
0.056246672 -0.15019716 0.64900005 1.3736455e-38
0.057482861 -0.15019716 0.64900005 1.3736455e-38
0.058809526 -0.15042858 0.65000004 1.3459868e-38
0.060232379 -0.15089144 0.65200001 1.3367313e-38
0.061568573 -0.15112287 0.65300006 1.3182921e-38
-0.00690381 -0.1512562 0.65900004 1.2537536e-38
-0.0056485715 -0.1512562 0.65900004 1.0970211e-38
-0.0043866672 -0.15102668 0.65800005 1.0693274e-38
-0.0031333335 -0.15102668 0.65800005 1.096986e-38
-0.0018771428 -0.15079714 0.65700001 1.1245728e-38
-0.00062380952 -0.1503381 0.65500003 1.1522315e-38
0.00062285719 -0.15010858 0.65400004 1.170741e-38
0.0018657143 -0.14987907 0.65300006 1.1799606e-38
0.0031047619 -0.14964953 0.65200001 1.1799624e-38
0.0043333336 -0.14919049 0.65000004 1.1984015e-38
0.0055628577 -0.14896096 0.64900005 1.2076574e-38
0.0067990478 -0.14896096 0.64900005 1.2168769e-38
0.0080228569 -0.14873143 0.648 1.2352805e-38
0.0092428569 -0.1485019 0.64700001 1.2537196e-38
0.010459048 -0.14827238 0.64600003 1.2446438e-38
0.011653334 -0.14781334 0.64400005 1.2723025e-38
0.012880001 -0.14781334 0.64400005 1.2907411e-38
0.014084762 -0.14758381 0.64300001 1.3091802e-38
0.015309525 -0.14758381 0.64300001 1.3091805e-38
0.016508572 -0.14735429 0.64200002 1.3276196e-38
0.017731428 -0.14735429 0.64200002 1.3276199e-38
0.018954286 -0.14735429 0.64200002 1.3368394e-38
0.020177143 -0.14735429 0.64200002 1.3736455e-38
0.021400001 -0.14735429 0.64200002 1.3920846e-38
0.02258762 -0.14712477 0.64100003 1.3737893e-38
0.023808572 -0.14712477 0.64100003 1.3830089e-38
0.025029525 -0.14712477 0.64100003 1.3921928e-38
0.026250478 -0.14712477 0.64100003 1.4014124e-38
0.027428573 -0.14689524 0.64000005 1.4013771e-38
0.02864762 -0.14689524 0.64000005 1.4105966e-38
0.029913336 -0.14712477 0.64100003 1.401485e-38
0.031085717 -0.14689524 0.64000005 1.401485e-38
0.032304764 -0.14689524 0.64000005 1.4290007e-38
0.033523809 -0.14689524 0.64000005 1.4290007e-38
0.034742858 -0.14689524 0.64000005 1.4382556e-38
0.036018096 -0.14712477 0.64100003 1.4566947e-38
0.037239049 -0.14712477 0.64100003 1.4383629e-38
0.038460001 -0.14712477 0.64100003 1.4383629e-38
0.039680954 -0.14712477 0.64100003 1.4474755e-38
0.040965714 -0.14735429 0.64200002 1.4474755e-38
0.042254284 -0.14758381 0.64300001 1.4566584e-38
0.043479048 -0.14758381 0.64300001 1.4474389e-38
0.044703808 -0.14758381 0.64300001 1.4382906e-38
0.046000004 -0.14781334 0.64400005 1.4290711e-38
0.047373332 -0.14827238 0.64600003 1.4198871e-38
0.04860381 -0.14827238 0.64600003 1.3922284e-38
0.049911428 -0.1485019 0.64700001 1.4105241e-38
0.05114381 -0.1485019 0.64700001 1.4105241e-38
0.052376192 -0.1485019 0.64700001 1.4013042e-38
0.053608574 -0.1485019 0.64700001 1.3828651e-38
0.054925714 -0.14873143 0.648 1.3828654e-38
0.056333333 -0.14919049 0.65000004 1.3644262e-38
0.057571433 -0.14919049 0.65000004 1.3459871e-38
-0.0056657144 -0.15045619 0.66100001 1.097093e-38
-0.0043933336 -0.15000096 0.65900004 1.0692195e-38
-0.0031380954 -0.15000096 0.65900004 1.0876586e-38
-0.0018800002 -0.14977334 0.65800005 1.1153173e-38
-0.00062571431 -0.14954571 0.65700001 1.1337564e-38
0.00062380952 -0.14909048 0.65500003 1.1246435e-38
0.0018685715 -0.14886287 0.65400004 1.1523022e-38
0.003109524 -0.14863525 0.65300006 1.1707423e-38
0.0043466669 -0.14840762 0.65200001 1.1891814e-38
0.0055714287 -0.14795238 0.65000004 1.1984375e-38
0.0067990478 -0.14772476 0.64900005 1.1984375e-38
0.0080352379 -0.14772476 0.64900005 1.2260962e-38
0.0092428569 -0.14726953 0.64700001 1.2537549e-38
0.010475239 -0.14726953 0.64700001 1.2446432e-38
0.011689524 -0.14704192 0.64600003 1.2538628e-38
0.012920001 -0.14704192 0.64600003 1.2630824e-38
0.014106668 -0.14658669 0.64400005 1.2999606e-38
0.015333335 -0.14658669 0.64400005 1.3000325e-38
0.016559999 -0.14658669 0.64400005 1.3092521e-38
0.017759047 -0.14635904 0.64300001 1.3184e-38
0.018983809 -0.14635904 0.64300001 1.3276196e-38
0.020177143 -0.14613143 0.64200002 1.3459868e-38
0.021400001 -0.14613143 0.64200002 1.364426e-38
0.022622859 -0.14613143 0.64200002 1.3645697e-38
0.023845714 -0.14613143 0.64200002 1.3830089e-38
0.025029525 -0.14590381 0.64100003 1.3646418e-38
0.026250478 -0.14590381 0.64100003 1.3646418e-38
0.027514286 -0.14613143 0.64200002 1.3738616e-38
0.028737145 -0.14613143 0.64200002 1.3923007e-38
0.029959999 -0.14613143 0.64200002 1.4106322e-38
0.031182857 -0.14613143 0.64200002 1.4106322e-38
0.032405715 -0.14613143 0.64200002 1.4198165e-38
0.033628572 -0.14613143 0.64200002 1.4105969e-38
0.034851428 -0.14613143 0.64200002 1.4105966e-38
0.036074288 -0.14613143 0.64200002 1.4290358e-38
0.037297145 -0.14613143 0.64200002 1.4291434e-38
0.038520001 -0.14613143 0.64200002 1.4291434e-38
0.039742857 -0.14613143 0.64200002 1.4382556e-38
0.041029524 -0.14635904 0.64300001 1.4474752e-38
0.042320006 -0.14658669 0.64400005 1.4382553e-38
0.043546669 -0.14658669 0.64400005 1.4382553e-38
0.044773336 -0.14658669 0.64400005 1.4290711e-38
0.046142858 -0.14704192 0.64600003 1.410632e-38
0.047446668 -0.14726953 0.64700001 1.4105603e-38
0.04867905 -0.14726953 0.64700001 1.4105603e-38
0.049911428 -0.14726953 0.64700001 1.3921568e-38
0.051222857 -0.14749713 0.648 1.4013764e-38
0.052457143 -0.14749713 0.648 1.3921568e-38
0.05377429 -0.14772476 0.64900005 1.3737177e-38
0.055010479 -0.14772476 0.64900005 1.3828651e-38
0.056506667 -0.14840762 0.65200001 1.3459868e-38
0.057748571 -0.14840762 0.65200001 1.3459508e-38
-0.0056657144 -0.14919715 0.66100001 1.1800315e-38
-0.0043933336 -0.14874573 0.65900004 1.0970226e-38
-0.0031380954 -0.14874573 0.65900004 1.0324857e-38
-0.0018800002 -0.14852001 0.65800005 1.1060977e-38
-0.00062571431 -0.14829428 0.65700001 1.1060977e-38
0.00062571431 -0.14829428 0.65700001 1.1062041e-38
0.0018685715 -0.14761716 0.65400004 1.1154236e-38
0.003109524 -0.14739144 0.65300006 1.1431545e-38
0.0043533337 -0.14739144 0.65300006 1.1615936e-38
0.0055885715 -0.14716572 0.65200001 1.1984719e-38
0.0068095243 -0.14671429 0.65000004 1.1984719e-38
0.0080352379 -0.14648859 0.64900005 1.2261306e-38
0.0092571434 -0.14626285 0.648 1.2537892e-38
0.010475239 -0.14603715 0.64700001 1.2538253e-38
0.011707619 -0.14603715 0.64700001 1.2630448e-38
0.01294 -0.14603715 0.64700001 1.263153e-38
0.014150477 -0.14581144 0.64600003 1.2723726e-38
0.015380953 -0.14581144 0.64600003 1.2907767e-38
0.016611429 -0.14581144 0.64600003 1.3092158e-38
0.017786669 -0.14536001 0.64400005 1.3092158e-38
0.019013334 -0.14536001 0.64400005 1.3276549e-38
0.020208571 -0.14513429 0.64300001 1.3368389e-38
0.021433335 -0.14513429 0.64300001 1.3276193e-38
0.022622859 -0.14490858 0.64200002 1.3553499e-38
0.023845714 -0.14490858 0.64200002 1.3645695e-38
0.025068572 -0.14490858 0.64200002 1.3737887e-38
0.02629143 -0.14490858 0.64200002 1.3830083e-38
0.027514286 -0.14490858 0.64200002 1.3646774e-38
0.028737145 -0.14490858 0.64200002 1.3738969e-38
0.029959999 -0.14490858 0.64200002 1.4014124e-38
0.031182857 -0.14490858 0.64200002 1.4014124e-38
0.032405715 -0.14490858 0.64200002 1.4197799e-38
0.033680953 -0.14513429 0.64300001 1.4197799e-38
0.034905713 -0.14513429 0.64300001 1.4105966e-38
0.036130477 -0.14513429 0.64300001 1.4198162e-38
0.037355237 -0.14513429 0.64300001 1.4107043e-38
0.038579997 -0.14513429 0.64300001 1.4107043e-38
0.039804764 -0.14513429 0.64300001 1.4199238e-38
0.041093335 -0.14536001 0.64400005 1.4199238e-38
0.04245143 -0.14581144 0.64600003 1.4382909e-38
0.043681905 -0.14581144 0.64600003 1.4290714e-38
0.044981908 -0.14603715 0.64700001 1.4198871e-38
0.046285711 -0.14626285 0.648 1.3922284e-38
0.04752 -0.14626285 0.648 1.4013764e-38
0.048754286 -0.14626285 0.648 1.4013764e-38
0.049988572 -0.14626285 0.648 1.4013764e-38
0.051222857 -0.14626285 0.648 1.3829373e-38
0.052457143 -0.14626285 0.648 1.3921918e-38
0.05377429 -0.14648859 0.64900005 1.3737527e-38
0.05509524 -0.14671429 0.65000004 1.3737524e-38
0.056506667 -0.14716572 0.65200001 1.3184351e-38
-0.0056657144 -0.1479381 0.66100001 1.1984716e-38
-0.0044066664 -0.1479381 0.66100001 1.1246094e-38
-0.0031380954 -0.14749049 0.65900004 1.0231942e-38
-0.0018828572 -0.14749049 0.65900004 1.0415958e-38
-0.0006266667 -0.14726667 0.65800005 1.0692545e-38
0.00062571431 -0.14704286 0.65700001 1.0784741e-38
0.0018714287 -0.14659524 0.65500003 1.1153523e-38
0.0031142859 -0.14637144 0.65400004 1.1154958e-38
0.0043533337 -0.14614764 0.65300006 1.1615936e-38
0.0055885715 -0.14592381 0.65200001 1.152375e-38
0.0068095243 -0.14547621 0.65000004 1.1708142e-38
0.0080476198 -0.14547621 0.65000004 1.1799984e-38
0.0092714289 -0.14525239 0.64900005 1.189218e-38
0.01050762 -0.14525239 0.64900005 1.1984728e-38
0.011725714 -0.14502856 0.648 1.2537902e-38
0.01294 -0.14480476 0.64700001 1.2539347e-38
0.014172382 -0.14480476 0.64700001 1.2447151e-38
0.015380953 -0.14458096 0.64600003 1.2539344e-38
0.016611429 -0.14458096 0.64600003 1.2815931e-38
0.017841905 -0.14458096 0.64600003 1.2815571e-38
0.019072382 -0.14458096 0.64600003 1.2999962e-38
0.020240003 -0.14413334 0.64400005 1.3092158e-38
0.021466667 -0.14413334 0.64400005 1.3184353e-38
0.022658095 -0.14390951 0.64300001 1.3369108e-38
0.023882857 -0.14390951 0.64300001 1.3369108e-38
0.02510762 -0.14390951 0.64300001 1.3277635e-38
0.02633238 -0.14390951 0.64300001 1.3462026e-38
0.027600003 -0.14413334 0.64400005 1.3646774e-38
0.028826667 -0.14413334 0.64400005 1.3646774e-38
0.030053336 -0.14413334 0.64400005 1.3646418e-38
0.031231428 -0.14390951 0.64300001 1.3738613e-38
0.032456189 -0.14390951 0.64300001 1.3738616e-38
0.033733334 -0.14413334 0.64400005 1.3830812e-38
0.034960002 -0.14413334 0.64400005 1.4105606e-38
0.036186669 -0.14413334 0.64400005 1.4197802e-38
0.037413336 -0.14413334 0.64400005 1.3923007e-38
0.038640004 -0.14413334 0.64400005 1.3923007e-38
0.039990477 -0.14458096 0.64600003 1.410632e-38
0.041220952 -0.14458096 0.64600003 1.4290711e-38
0.042517144 -0.14480476 0.64700001 1.4015569e-38
0.043749522 -0.14480476 0.64700001 1.3923373e-38
