# .PCD v0.7 - Point Cloud Data file format
VERSION 0.7
FIELDS x y z rgb
SIZE 4 4 4 4
TYPE F F F F
COUNT 1 1 1 1
WIDTH 987
HEIGHT 1
VIEWPOINT 0 0 0 1 0 0 0
POINTS 987
DATA ascii
0.070640959 -0.21659335 0.61300004 1.6411946e-38
0.07204286 -0.21730001 0.61500001 1.6411946e-38
0.073571429 -0.21836001 0.61800003 1.6135362e-38
0.074990474 -0.21906666 0.62 1.6135362e-38
0.076294295 -0.21942002 0.62100005 1.5951687e-38
0.07772667 -0.22012667 0.62300003 1.5767295e-38
0.079040006 -0.22048 0.62400001 1.5858772e-38
0.080228575 -0.22048 0.62400001 1.5213403e-38
0.081417143 -0.22048 0.62400001 1.5029019e-38
0.082605712 -0.22048 0.62400001 1.456804e-38
-0.01375619 -0.22069715 0.62800002 1.2817751e-38
-0.0125 -0.21964285 0.625 1.3370925e-38
-0.011309524 -0.21964285 0.625 1.3830821e-38
-0.010102857 -0.21929143 0.62400001 1.3923017e-38
-0.0088857152 -0.21858859 0.62200004 1.4290358e-38
-0.0076761907 -0.21788572 0.62 1.4382553e-38
-0.0064847618 -0.21753429 0.61900002 1.429036e-38
-0.005297143 -0.21718286 0.61800003 1.429036e-38
-0.0041066669 -0.21648002 0.61600006 1.4382559e-38
-0.0029238097 -0.21577714 0.61400002 1.4474755e-38
-0.0017514287 -0.21542571 0.61300004 1.4474399e-38
-0.00058285717 -0.2150743 0.61200005 1.4474399e-38
0.00058190478 -0.21472286 0.611 1.4474401e-38
0.0017457142 -0.21472286 0.611 1.4750988e-38
0.002904762 -0.21437144 0.61000001 1.4476194e-38
0.0040600002 -0.21402 0.60900003 1.4568389e-38
0.0052200002 -0.21402 0.60900003 1.4843181e-38
0.0063800002 -0.21402 0.60900003 1.4843181e-38
0.0075276191 -0.21366858 0.60800004 1.5027572e-38
0.008671429 -0.21331716 0.60700005 1.5027572e-38
0.0098276203 -0.21331716 0.60700005 1.5027575e-38
0.010965714 -0.21296571 0.60600001 1.5119771e-38
0.01212 -0.21296571 0.60600001 1.5212317e-38
0.013274285 -0.21296571 0.60600001 1.5212317e-38
0.014380952 -0.21226287 0.60400003 1.5028651e-38
0.015531429 -0.21226287 0.60400003 1.5213043e-38
0.016681906 -0.21226287 0.60400003 1.5212687e-38
0.017802857 -0.21191144 0.60300004 1.5304882e-38
0.018951431 -0.21191144 0.60300004 1.5305598e-38
0.020066667 -0.21156001 0.60200006 1.5305598e-38
0.021178095 -0.21120857 0.60100001 1.5305249e-38
0.022322858 -0.21120857 0.60100001 1.5305249e-38
0.023467619 -0.21120857 0.60100001 1.5397434e-38
0.02461238 -0.21120857 0.60100001 1.5305238e-38
0.025757143 -0.21120857 0.60100001 1.5305235e-38
0.026901904 -0.21120857 0.60100001 1.521304e-38
0.028046668 -0.21120857 0.60100001 1.4752432e-38
0.029191429 -0.21120857 0.60100001 1.4660236e-38
0.030285714 -0.21085715 0.60000002 1.493573e-38
0.031376194 -0.21050574 0.59900004 1.4659143e-38
0.032462858 -0.21015429 0.59800005 1.429036e-38
0.033601906 -0.21015429 0.59800005 1.2999622e-38
0.034682855 -0.20980285 0.597 1.2817038e-38
0.03582 -0.20980285 0.597 1.2817038e-38
0.037019052 -0.21015429 0.59800005 1.2632647e-38
0.036243808 -0.19961144 0.56800002 1.4384364e-38
0.037325714 -0.19961144 0.56800002 1.5121214e-38
0.03840762 -0.19961144 0.56800002 1.6872931e-38
0.039489523 -0.19961144 0.56800002 1.7793792e-38
0.0405 -0.19926001 0.56700003 1.7885987e-38
0.041580003 -0.19926001 0.56700003 1.7518294e-38
0.042735238 -0.19961144 0.56800002 1.7518294e-38
0.043817144 -0.19961144 0.56800002 1.7610506e-38
0.044899046 -0.19961144 0.56800002 1.7979288e-38
0.045980953 -0.19961144 0.56800002 1.7795616e-38
0.047062855 -0.19961144 0.56800002 1.7426834e-38
0.048144761 -0.19961144 0.56800002 1.7426828e-38
0.049140003 -0.19926001 0.56700003 1.7334632e-38
0.050220001 -0.19926001 0.56700003 1.7426098e-38
0.0513 -0.19926001 0.56700003 1.7241707e-38
0.052380003 -0.19926001 0.56700003 1.7241697e-38
0.057325717 -0.21366858 0.60800004 1.6227545e-38
0.058483813 -0.21366858 0.60800004 1.6043885e-38
0.059641909 -0.21366858 0.60800004 1.6228276e-38
0.060800005 -0.21366858 0.60800004 1.6411953e-38
0.061958101 -0.21366858 0.60800004 1.6596344e-38
0.063220002 -0.21402 0.60900003 1.6596344e-38
0.064485714 -0.21437144 0.61000001 1.6596344e-38
0.065647617 -0.21437144 0.61000001 1.6503793e-38
0.066919044 -0.21472286 0.611 1.6503793e-38
0.068082854 -0.21472286 0.611 1.6504144e-38
0.069360003 -0.2150743 0.61200005 1.6504144e-38
0.070756197 -0.21577714 0.61400002 1.6411946e-38
0.072160006 -0.21648002 0.61600006 1.631975e-38
0.073690474 -0.21753429 0.61900002 1.6135366e-38
0.074990474 -0.21788572 0.62 1.6135366e-38
0.076294295 -0.21823716 0.62100005 1.5951689e-38
0.07772667 -0.21894 0.62300003 1.5675103e-38
0.079040006 -0.21929143 0.62400001 1.5766577e-38
0.080228575 -0.21929143 0.62400001 1.5213403e-38
0.081547618 -0.21964285 0.625 1.4844627e-38
-0.0125 -0.21845238 0.625 1.3371278e-38
-0.011309524 -0.21845238 0.625 1.3738629e-38
-0.010102857 -0.21810287 0.62400001 1.3830824e-38
-0.0088857152 -0.21740383 0.62200004 1.4105969e-38
-0.0076885722 -0.21705429 0.62100005 1.429036e-38
-0.0064847618 -0.21635523 0.61900002 1.429036e-38
-0.005297143 -0.21600573 0.61800003 1.429036e-38
-0.0041200002 -0.21600573 0.61800003 1.4382203e-38
-0.0029285715 -0.21495715 0.61500001 1.4474399e-38
-0.0017542857 -0.21460763 0.61400002 1.4474399e-38
-0.00058285717 -0.21390858 0.61200005 1.4474399e-38
0.00058285717 -0.21390858 0.61200005 1.429001e-38
0.0017457142 -0.21355905 0.611 1.4750988e-38
0.002904762 -0.21320952 0.61000001 1.4750985e-38
0.0040600002 -0.21286 0.60900003 1.4843181e-38
0.0052200002 -0.21286 0.60900003 1.4843181e-38
0.0063800002 -0.21286 0.60900003 1.4935377e-38
0.0075276191 -0.2125105 0.60800004 1.5027572e-38
0.008671429 -0.21216096 0.60700005 1.5027572e-38
0.0098276203 -0.21216096 0.60700005 1.5119408e-38
0.010965714 -0.21181144 0.60600001 1.5395995e-38
0.01212 -0.21181144 0.60600001 1.530451e-38
0.013274285 -0.21181144 0.60600001 1.530451e-38
0.014380952 -0.21111239 0.60400003 1.51212e-38
0.015531429 -0.21111239 0.60400003 1.5213396e-38
0.016681906 -0.21111239 0.60400003 1.5213406e-38
0.017802857 -0.21076286 0.60300004 1.5305601e-38
0.018951431 -0.21076286 0.60300004 1.5122293e-38
0.020066667 -0.21041335 0.60200006 1.5122293e-38
0.021178095 -0.21006382 0.60100001 1.5305249e-38
0.022322858 -0.21006382 0.60100001 1.5305249e-38
0.023467619 -0.21006382 0.60100001 1.5213403e-38
0.02461238 -0.21006382 0.60100001 1.5121207e-38
0.025757143 -0.21006382 0.60100001 1.5212687e-38
0.026901904 -0.21006382 0.60100001 1.5212687e-38
0.028046668 -0.21006382 0.60100001 1.4937538e-38
0.029191429 -0.21006382 0.60100001 1.4845342e-38
0.030285714 -0.20971429 0.60000002 1.4476554e-38
0.031376194 -0.20936477 0.59900004 1.4292163e-38
0.032462858 -0.20901525 0.59800005 1.3830468e-38
0.033601906 -0.20901525 0.59800005 1.2816316e-38
0.034740955 -0.20901525 0.59800005 1.309254e-38
0.035880003 -0.20901525 0.59800005 1.309254e-38
0.037019052 -0.20901525 0.59800005 1.2815956e-38
0.036243808 -0.19852953 0.56800002 1.4567673e-38
0.037325714 -0.19852953 0.56800002 1.5212691e-38
0.03840762 -0.19852953 0.56800002 1.6872212e-38
0.039489523 -0.19852953 0.56800002 1.7057315e-38
0.040571429 -0.19852953 0.56800002 1.7057315e-38
0.041653331 -0.19852953 0.56800002 1.6965123e-38
0.042810477 -0.19887905 0.56900001 1.7057318e-38
0.043894287 -0.19887905 0.56900001 1.7426105e-38
0.044978097 -0.19887905 0.56900001 1.7610496e-38
0.046061907 -0.19887905 0.56900001 1.7426828e-38
0.047145717 -0.19887905 0.56900001 1.7334632e-38
0.048229523 -0.19887905 0.56900001 1.7518661e-38
0.049226668 -0.19852953 0.56800002 1.7426465e-38
0.050308574 -0.19852953 0.56800002 1.7426101e-38
0.0513 -0.19818 0.56700003 1.7333905e-38
0.052380003 -0.19818 0.56700003 1.687328e-38
0.057325717 -0.2125105 0.60800004 1.6135715e-38
0.058483813 -0.2125105 0.60800004 1.6227557e-38
0.059641909 -0.2125105 0.60800004 1.6319753e-38
0.060900003 -0.21286 0.60900003 1.6227562e-38
0.062060002 -0.21286 0.60900003 1.6504149e-38
0.063220002 -0.21286 0.60900003 1.6504144e-38
0.064485714 -0.21320952 0.61000001 1.6504144e-38
0.065647617 -0.21320952 0.61000001 1.6504149e-38
0.066919044 -0.21355905 0.611 1.6504149e-38
0.068082854 -0.21355905 0.611 1.6411953e-38
0.069586664 -0.21460763 0.61400002 1.6411953e-38
0.070986666 -0.21530668 0.61600006 1.6411949e-38
0.072394289 -0.21600573 0.61800003 1.6319753e-38
0.073809519 -0.21670477 0.62 1.6319034e-38
0.075111434 -0.21705429 0.62100005 1.6226839e-38
0.076417148 -0.21740383 0.62200004 1.5951689e-38
0.07772667 -0.21775334 0.62300003 1.5951689e-38
0.079040006 -0.21810287 0.62400001 1.5766944e-38
0.080228575 -0.21810287 0.62400001 1.5029379e-38
0.081547618 -0.21845238 0.625 1.4475478e-38
-0.01248 -0.2169143 0.62400001 1.3279083e-38
-0.011273334 -0.21656667 0.62300003 1.3646433e-38
-0.010086667 -0.21656667 0.62300003 1.3646433e-38
-0.0088857152 -0.21621905 0.62200004 1.3646433e-38
-0.0076885722 -0.21587145 0.62100005 1.392302e-38
-0.0064952383 -0.21552381 0.62 1.3830824e-38
-0.0053057144 -0.21517619 0.61900002 1.3738629e-38
-0.0041200002 -0.21482858 0.61800003 1.3922667e-38
-0.0029285715 -0.21378572 0.61500001 1.4107058e-38
-0.0017542857 -0.21343809 0.61400002 1.4382203e-38
-0.00058380957 -0.21309048 0.61300004 1.4474399e-38
0.00058285717 -0.21274288 0.61200005 1.4199254e-38
0.0017485716 -0.21274288 0.61200005 1.4383645e-38
0.002904762 -0.21204762 0.61000001 1.4750985e-38
0.0040666666 -0.21204762 0.61000001 1.4750985e-38
0.0052285716 -0.21204762 0.61000001 1.4750988e-38
0.0063800002 -0.21170001 0.60900003 1.4843184e-38
0.0075400001 -0.21170001 0.60900003 1.493538e-38
0.0086857146 -0.21135239 0.60800004 1.5027575e-38
0.0098276203 -0.21100478 0.60700005 1.5119768e-38
0.010983811 -0.21100478 0.60700005 1.5488551e-38
0.01212 -0.21065715 0.60600001 1.5304866e-38
0.013274285 -0.21065715 0.60600001 1.5397061e-38
0.014380952 -0.20996191 0.60400003 1.51212e-38
0.015531429 -0.20996191 0.60400003 1.5213396e-38
0.016681906 -0.20996191 0.60400003 1.512121e-38
0.017832382 -0.20996191 0.60400003 1.5213406e-38
0.018951431 -0.20961429 0.60300004 1.5213054e-38
0.020066667 -0.20926669 0.60200006 1.5213054e-38
0.021213336 -0.20926669 0.60200006 1.5305249e-38
0.022360003 -0.20926669 0.60200006 1.5305249e-38
0.023506669 -0.20926669 0.60200006 1.5305598e-38
0.02461238 -0.20891905 0.60100001 1.5213403e-38
0.025757143 -0.20891905 0.60100001 1.521304e-38
0.026901904 -0.20891905 0.60100001 1.5028649e-38
0.028046668 -0.20891905 0.60100001 1.484462e-38
0.029191429 -0.20891905 0.60100001 1.484462e-38
0.030285714 -0.20857143 0.60000002 1.4660582e-38
0.031376194 -0.20822382 0.59900004 1.4568386e-38
0.032517143 -0.20822382 0.59900004 1.3830468e-38
0.033601906 -0.20787621 0.59800005 1.2908512e-38
0.034740955 -0.20787621 0.59800005 1.309254e-38
0.035880003 -0.20787621 0.59800005 1.309254e-38
0.037080955 -0.20822382 0.59900004 1.2632644e-38
0.036243808 -0.19744763 0.56800002 1.4384361e-38
0.037325714 -0.19744763 0.56800002 1.5213054e-38
0.03840762 -0.19744763 0.56800002 1.6688184e-38
0.039489523 -0.19744763 0.56800002 1.6965113e-38
0.040571429 -0.19744763 0.56800002 1.7057308e-38
0.041653331 -0.19744763 0.56800002 1.6596707e-38
0.042810477 -0.19779523 0.56900001 1.6412316e-38
0.043894287 -0.19779523 0.56900001 1.6688184e-38
0.044978097 -0.19779523 0.56900001 1.7149162e-38
0.046061907 -0.19779523 0.56900001 1.7056955e-38
0.047145717 -0.19779523 0.56900001 1.7056955e-38
0.048229523 -0.19779523 0.56900001 1.7148802e-38
0.049313333 -0.19779523 0.56900001 1.7148802e-38
0.050308574 -0.19744763 0.56800002 1.7333186e-38
0.05139048 -0.19744763 0.56800002 1.6964404e-38
0.052472383 -0.19744763 0.56800002 1.6688526e-38
0.057420004 -0.21170001 0.60900003 1.6227548e-38
0.058580004 -0.21170001 0.60900003 1.6319753e-38
0.059739999 -0.21170001 0.60900003 1.6411949e-38
0.061000001 -0.21204762 0.61000001 1.6411946e-38
0.062161908 -0.21204762 0.61000001 1.6411946e-38
0.063323803 -0.21204762 0.61000001 1.6320106e-38
0.06459143 -0.21239524 0.611 1.6504498e-38
0.065755233 -0.21239524 0.611 1.6595977e-38
0.067028575 -0.21274288 0.61200005 1.6595977e-38
0.068305716 -0.21309048 0.61300004 1.6411949e-38
0.069699995 -0.21378572 0.61500001 1.6411949e-38
0.070986666 -0.21413335 0.61600006 1.6504149e-38
0.072511427 -0.21517619 0.61900002 1.6319757e-38
0.073809519 -0.21552381 0.62 1.6135366e-38
0.075111434 -0.21587145 0.62100005 1.6135366e-38
0.076417148 -0.21621905 0.62200004 1.6043163e-38
0.07772667 -0.21656667 0.62300003 1.6043163e-38
0.079040006 -0.2169143 0.62400001 1.5858779e-38
0.080228575 -0.2169143 0.62400001 1.5029019e-38
0.081547618 -0.2172619 0.625 1.4108141e-38
-0.01246 -0.21538 0.62300003 1.3370925e-38
-0.011273334 -0.21538 0.62300003 1.3738629e-38
-0.010086667 -0.21538 0.62300003 1.3646433e-38
-0.0088857152 -0.21503429 0.62200004 1.3646781e-38
-0.0076885722 -0.21468858 0.62100005 1.3831172e-38
-0.0064952383 -0.21434285 0.62 1.3830824e-38
-0.0053057144 -0.21399714 0.61900002 1.3738629e-38
-0.0041200002 -0.21365143 0.61800003 1.3922664e-38
-0.0029428573 -0.21365143 0.61800003 1.4107055e-38
-0.0017571428 -0.2126143 0.61500001 1.4382203e-38
-0.0005847619 -0.21226858 0.61400002 1.4566594e-38
0.00058380957 -0.21192287 0.61300004 1.4291446e-38
0.0017485716 -0.21157716 0.61200005 1.4383642e-38
0.0029095239 -0.21123143 0.611 1.4475838e-38
0.0040666666 -0.21088572 0.61000001 1.4568033e-38
0.0052285716 -0.21088572 0.61000001 1.4843181e-38
0.0063904761 -0.21088572 0.61000001 1.4935377e-38
0.0075400001 -0.21054001 0.60900003 1.4935733e-38
0.0086857146 -0.21019429 0.60800004 1.5120124e-38
0.0098438095 -0.21019429 0.60800004 1.5119771e-38
0.010983811 -0.20984858 0.60700005 1.5119771e-38
0.01212 -0.20950285 0.60600001 1.493573e-38
0.013274285 -0.20950285 0.60600001 1.5120121e-38
0.014380952 -0.20881145 0.60400003 1.4752425e-38
0.015531429 -0.20881145 0.60400003 1.5121207e-38
0.016681906 -0.20881145 0.60400003 1.5305238e-38
0.017832382 -0.20881145 0.60400003 1.5305238e-38
0.018951431 -0.20846574 0.60300004 1.521341e-38
0.020066667 -0.20812002 0.60200006 1.5305605e-38
0.021213336 -0.20812002 0.60200006 1.5305605e-38
0.022360003 -0.20812002 0.60200006 1.5305605e-38
0.023506669 -0.20812002 0.60200006 1.5305598e-38
0.024653334 -0.20812002 0.60200006 1.5305598e-38
0.025757143 -0.2077743 0.60100001 1.5121926e-38
0.026901904 -0.2077743 0.60100001 1.502973e-38
0.028046668 -0.2077743 0.60100001 1.4845339e-38
0.029191429 -0.2077743 0.60100001 1.4753143e-38
0.030285714 -0.20742857 0.60000002 1.4660229e-38
0.031428572 -0.20742857 0.60000002 1.4568033e-38
0.032571428 -0.20742857 0.60000002 1.3922671e-38
0.033658098 -0.20708287 0.59900004 1.2631932e-38
0.034799047 -0.20708287 0.59900004 1.2907776e-38
0.035940003 -0.20708287 0.59900004 1.3368754e-38
0.037142858 -0.20742857 0.60000002 1.2908499e-38
0.036307618 -0.19671142 0.56900001 1.4475825e-38
0.037391428 -0.19671142 0.56900001 1.5214489e-38
0.03840762 -0.19636571 0.56800002 1.6505228e-38
0.039489523 -0.19636571 0.56800002 1.6688173e-38
0.040571429 -0.19636571 0.56800002 1.696476e-38
0.041653331 -0.19636571 0.56800002 1.6688533e-38
0.042810477 -0.19671142 0.56900001 1.6596337e-38
0.043894287 -0.19671142 0.56900001 1.668817e-38
0.044978097 -0.19671142 0.56900001 1.6872561e-38
0.046061907 -0.19671142 0.56900001 1.696476e-38
0.047145717 -0.19671142 0.56900001 1.696476e-38
0.048229523 -0.19671142 0.56900001 1.6964404e-38
0.049313333 -0.19671142 0.56900001 1.7056599e-38
0.050308574 -0.19636571 0.56800002 1.7148795e-38
0.05139048 -0.19636571 0.56800002 1.6872208e-38
0.052472383 -0.19636571 0.56800002 1.6319753e-38
0.053554289 -0.19636571 0.56800002 1.6135362e-38
0.058676191 -0.21088572 0.61000001 1.6227562e-38
0.059838098 -0.21088572 0.61000001 1.6319757e-38
0.061000001 -0.21088572 0.61000001 1.6503781e-38
0.062161908 -0.21088572 0.61000001 1.6595977e-38
0.06342762 -0.21123143 0.611 1.6504142e-38
0.06459143 -0.21123143 0.611 1.6504142e-38
0.065862864 -0.21157716 0.61200005 1.6504142e-38
0.067138098 -0.21192287 0.61300004 1.6504142e-38
0.068417147 -0.21226858 0.61400002 1.6411949e-38
0.069699995 -0.2126143 0.61500001 1.6411949e-38
0.070986666 -0.21296002 0.61600006 1.6504144e-38
0.072511427 -0.21399714 0.61900002 1.6319753e-38
0.07392858 -0.21468858 0.62100005 1.6135359e-38
0.075232387 -0.21503429 0.62200004 1.6135359e-38
0.076540001 -0.21538 0.62300003 1.5951689e-38
0.07772667 -0.21538 0.62300003 1.5859494e-38
0.079040006 -0.21572572 0.62400001 1.5489644e-38
0.080357142 -0.21607143 0.625 1.493647e-38
0.081808574 -0.21676287 0.62700003 1.3831891e-38
-0.013668572 -0.21453714 0.62400001 1.2909228e-38
-0.01246 -0.21419334 0.62300003 1.3462402e-38
-0.011273334 -0.21419334 0.62300003 1.3646077e-38
-0.010086667 -0.21419334 0.62300003 1.3553881e-38
-0.0088999998 -0.21419334 0.62300003 1.3554222e-38
-0.0077009527 -0.21384953 0.62200004 1.3738613e-38
-0.0064952383 -0.21316192 0.62 1.3738273e-38
-0.0053142854 -0.21316192 0.62 1.3830468e-38
-0.0041266666 -0.21281809 0.61900002 1.3830468e-38
-0.0029428573 -0.21247429 0.61800003 1.401486e-38
-0.0017571428 -0.21144286 0.61500001 1.4382559e-38
-0.0005847619 -0.21109906 0.61400002 1.4474755e-38
0.00058380957 -0.21075524 0.61300004 1.4199254e-38
0.0017514287 -0.21075524 0.61300004 1.4291449e-38
0.0029142858 -0.21041144 0.61200005 1.4383645e-38
0.0040733335 -0.21006761 0.611 1.4568036e-38
0.0052285716 -0.20972382 0.61000001 1.4843537e-38
0.0063904761 -0.20972382 0.61000001 1.4843537e-38
0.0075400001 -0.20938002 0.60900003 1.4935017e-38
0.0086857146 -0.20903622 0.60800004 1.5119408e-38
0.0098438095 -0.20903622 0.60800004 1.5211966e-38
0.010983811 -0.20869239 0.60700005 1.5027575e-38
0.01214 -0.20869239 0.60700005 1.5027928e-38
0.013274285 -0.20834857 0.60600001 1.521232e-38
0.014380952 -0.20766096 0.60400003 1.4936104e-38
0.015531429 -0.20766096 0.60400003 1.5120495e-38
0.016681906 -0.20766096 0.60400003 1.5213043e-38
0.017832382 -0.20766096 0.60400003 1.5397434e-38
0.018951431 -0.20731716 0.60300004 1.5304882e-38
0.020100001 -0.20731716 0.60300004 1.5304882e-38
0.021213336 -0.20697336 0.60200006 1.5305598e-38
0.022360003 -0.20697336 0.60200006 1.5305598e-38
0.023545716 -0.20731716 0.60300004 1.5305598e-38
0.024653334 -0.20697336 0.60200006 1.5213403e-38
0.025800001 -0.20697336 0.60200006 1.5305235e-38
0.026946669 -0.20697336 0.60200006 1.521304e-38
0.028093336 -0.20697336 0.60200006 1.5028651e-38
0.029191429 -0.20662951 0.60100001 1.5028651e-38
0.030285714 -0.20628572 0.60000002 1.4844976e-38
0.031428572 -0.20628572 0.60000002 1.4568389e-38
0.032571428 -0.20628572 0.60000002 1.4383645e-38
0.033658098 -0.20594192 0.59900004 1.2539732e-38
0.034799047 -0.20594192 0.59900004 1.2631545e-38
0.035940003 -0.20594192 0.59900004 1.336911e-38
0.037080955 -0.20594192 0.59900004 1.2817739e-38
0.036307618 -0.19562761 0.56900001 1.4292869e-38
0.037391428 -0.19562761 0.56900001 1.5121574e-38
0.03840762 -0.19528382 0.56800002 1.6596704e-38
0.039489523 -0.19528382 0.56800002 1.6595977e-38
0.040571429 -0.19528382 0.56800002 1.6872564e-38
0.041653331 -0.19528382 0.56800002 1.6780721e-38
0.042810477 -0.19562761 0.56900001 1.6872917e-38
0.043894287 -0.19562761 0.56900001 1.6780366e-38
0.044978097 -0.19562761 0.56900001 1.6780366e-38
0.046061907 -0.19562761 0.56900001 1.6780368e-38
0.047145717 -0.19562761 0.56900001 1.6872564e-38
0.048229523 -0.19562761 0.56900001 1.6872208e-38
0.049313333 -0.19562761 0.56900001 1.6872208e-38
0.050397143 -0.19562761 0.56900001 1.7057308e-38
0.051480953 -0.19562761 0.56900001 1.659633e-38
0.052564763 -0.19562761 0.56900001 1.6319401e-38
0.057514288 -0.20972382 0.61000001 1.613501e-38
0.058676191 -0.20972382 0.61000001 1.6227209e-38
0.059838098 -0.20972382 0.61000001 1.6319404e-38
0.061000001 -0.20972382 0.61000001 1.6411946e-38
0.062161908 -0.20972382 0.61000001 1.6596337e-38
0.06342762 -0.21006761 0.611 1.659634e-38
0.06459143 -0.21006761 0.611 1.6504144e-38
0.065862864 -0.21041144 0.61200005 1.6411949e-38
0.067138098 -0.21075524 0.61300004 1.6319753e-38
0.068417147 -0.21109906 0.61400002 1.6411586e-38
0.069813341 -0.21178669 0.61600006 1.6411586e-38
0.070986666 -0.21178669 0.61600006 1.6411583e-38
0.072628573 -0.21316192 0.62 1.6319387e-38
0.07392858 -0.21350573 0.62100005 1.6227555e-38
0.075232387 -0.21384953 0.62200004 1.6135359e-38
0.076540001 -0.21419334 0.62300003 1.5951689e-38
0.07772667 -0.21419334 0.62300003 1.5859494e-38
0.079040006 -0.21453714 0.62400001 1.5490369e-38
0.080357142 -0.21488094 0.625 1.4845e-38
0.081808574 -0.21556859 0.62700003 1.3739719e-38
-0.017620953 -0.21813524 0.63800001 1.8901581e-38
-0.016405715 -0.21813524 0.63800001 1.9085609e-38
-0.015166666 -0.21779335 0.63700002 1.4752415e-38
-0.013668572 -0.21334858 0.62400001 1.3093619e-38
-0.01248 -0.21334858 0.62400001 1.3370206e-38
-0.011291428 -0.21334858 0.62400001 1.3462405e-38
-0.010086667 -0.21300668 0.62300003 1.3462405e-38
-0.0088999998 -0.21300668 0.62300003 1.3553869e-38
-0.0077009527 -0.21266478 0.62200004 1.3830456e-38
-0.0065057147 -0.21232288 0.62100005 1.4105972e-38
-0.0053142854 -0.21198095 0.62 1.4198168e-38
-0.0041266666 -0.21163905 0.61900002 1.392302e-38
-0.002947619 -0.21163905 0.61900002 1.4107411e-38
-0.0017657144 -0.21129715 0.61800003 1.4382559e-38
-0.0005857143 -0.21027143 0.61500001 1.4474755e-38
0.0005847619 -0.20992953 0.61400002 1.4291446e-38
0.0017514287 -0.20958763 0.61300004 1.4291446e-38
0.0029142858 -0.20924574 0.61200005 1.4659146e-38
0.0040733335 -0.2089038 0.611 1.4751341e-38
0.005237143 -0.2089038 0.611 1.4750985e-38
0.0063904761 -0.20856191 0.61000001 1.4843181e-38
0.0075523811 -0.20856191 0.61000001 1.4935011e-38
0.0087000001 -0.20822001 0.60900003 1.5119402e-38
0.0098438095 -0.20787811 0.60800004 1.5119768e-38
0.010983811 -0.20753621 0.60700005 1.5119768e-38
0.01214 -0.20753621 0.60700005 1.5120124e-38
0.013274285 -0.20719428 0.60600001 1.521232e-38
0.014380952 -0.20651048 0.60400003 1.5028295e-38
0.015531429 -0.20651048 0.60400003 1.5212687e-38
0.016681906 -0.20651048 0.60400003 1.5396355e-38
0.017832382 -0.20651048 0.60400003 1.5580746e-38
0.018982857 -0.20651048 0.60400003 1.5397434e-38
0.020100001 -0.20616859 0.60300004 1.5305238e-38
0.021248572 -0.20616859 0.60300004 1.5305598e-38
0.022397144 -0.20616859 0.60300004 1.5305598e-38
0.023584763 -0.20651048 0.60400003 1.5305598e-38
0.024694288 -0.20616859 0.60300004 1.5213403e-38
0.025800001 -0.20582668 0.60200006 1.5305238e-38
0.026946669 -0.20582668 0.60200006 1.5305238e-38
0.028093336 -0.20582668 0.60200006 1.4937535e-38
0.029240003 -0.20582668 0.60200006 1.4937535e-38
0.03033619 -0.20548476 0.60100001 1.4937532e-38
0.031428572 -0.20514287 0.60000002 1.5029728e-38
0.032571428 -0.20514287 0.60000002 1.4384012e-38
0.033658098 -0.20480096 0.59900004 1.2540099e-38
0.034799047 -0.20480096 0.59900004 1.2262054e-38
0.035940003 -0.20480096 0.59900004 1.2815228e-38
0.037080955 -0.20480096 0.59900004 1.3276915e-38
0.036307618 -0.19454381 0.56900001 1.4752045e-38
0.037391428 -0.19454381 0.56900001 1.5120495e-38
0.03840762 -0.1942019 0.56800002 1.6319038e-38
0.039489523 -0.1942019 0.56800002 1.6319038e-38
0.040571429 -0.1942019 0.56800002 1.6872212e-38
0.041653331 -0.1942019 0.56800002 1.6689242e-38
0.042810477 -0.19454381 0.56900001 1.6781438e-38
0.043971434 -0.19488573 0.57000005 1.6688533e-38
0.045057148 -0.19488573 0.57000005 1.6596337e-38
0.046142861 -0.19488573 0.57000005 1.6687817e-38
0.047228575 -0.19488573 0.57000005 1.6687817e-38
0.048314288 -0.19488573 0.57000005 1.6687817e-38
0.049313333 -0.19454381 0.56900001 1.6964404e-38
0.050397143 -0.19454381 0.56900001 1.7057308e-38
0.051480953 -0.19454381 0.56900001 1.659633e-38
0.056352381 -0.20856191 0.61000001 1.6411953e-38
0.057514288 -0.20856191 0.61000001 1.6135366e-38
0.058676191 -0.20856191 0.61000001 1.613501e-38
0.059838098 -0.20856191 0.61000001 1.6411597e-38
0.061099999 -0.2089038 0.611 1.6411946e-38
0.062263809 -0.2089038 0.611 1.6504142e-38
0.06342762 -0.2089038 0.611 1.6412668e-38
0.06459143 -0.2089038 0.611 1.6412668e-38
0.065862864 -0.20924574 0.61200005 1.6411946e-38
0.067247622 -0.20992953 0.61400002 1.6411946e-38
0.06852857 -0.21027143 0.61500001 1.631975e-38
0.069813341 -0.21061336 0.61600006 1.6227555e-38
0.070986666 -0.21061336 0.61600006 1.6227911e-38
0.072628573 -0.21198095 0.62 1.6227911e-38
0.074047625 -0.21266478 0.62200004 1.6135359e-38
0.075353332 -0.21300668 0.62300003 1.6043163e-38
0.076540001 -0.21300668 0.62300003 1.5950619e-38
0.07772667 -0.21300668 0.62300003 1.5858423e-38
0.079040006 -0.21334858 0.62400001 1.5767298e-38
0.080357142 -0.21369047 0.625 1.4660951e-38
-0.017620953 -0.21692 0.63800001 1.8717909e-38
-0.016405715 -0.21692 0.63800001 1.9085607e-38
-0.015166666 -0.21658 0.63700002 1.4752412e-38
-0.01393143 -0.21624002 0.63600004 1.2724837e-38
-0.01254 -0.21318001 0.62700003 1.3278011e-38
-0.011309524 -0.21249999 0.625 1.3462407e-38
-0.010102857 -0.21216001 0.62400001 1.3462407e-38
-0.0088999998 -0.21182001 0.62300003 1.3645714e-38
-0.0077009527 -0.21148001 0.62200004 1.3830105e-38
-0.0065057147 -0.21114002 0.62100005 1.3830108e-38
-0.0053228578 -0.21114002 0.62100005 1.3922304e-38
-0.0041333335 -0.21079999 0.62 1.4198165e-38
-0.002947619 -0.21045999 0.61900002 1.4198165e-38
-0.0017657144 -0.21012001 0.61800003 1.4290007e-38
-0.00058666669 -0.20944001 0.61600006 1.4474399e-38
0.0005847619 -0.20876001 0.61400002 1.4566594e-38
0.0017542857 -0.20876001 0.61400002 1.4566594e-38
0.0029190476 -0.20842001 0.61300004 1.4566947e-38
0.0040800003 -0.20808002 0.61200005 1.4659143e-38
0.005237143 -0.20773999 0.611 1.4750985e-38
0.0063904761 -0.20740001 0.61000001 1.4750985e-38
0.0075523811 -0.20740001 0.61000001 1.4659143e-38
0.0087000001 -0.20706001 0.60900003 1.4843534e-38
0.0098600006 -0.20706001 0.60900003 1.493538e-38
0.011001905 -0.20672001 0.60800004 1.5119771e-38
0.01214 -0.20638002 0.60700005 1.4936456e-38
0.013274285 -0.20603999 0.60600001 1.4936456e-38
0.014380952 -0.20536001 0.60400003 1.4936104e-38
0.015531429 -0.20536001 0.60400003 1.5212691e-38
0.016681906 -0.20536001 0.60400003 1.5212687e-38
0.017832382 -0.20536001 0.60400003 1.5304882e-38
0.018982857 -0.20536001 0.60400003 1.5304889e-38
0.020133335 -0.20536001 0.60400003 1.5304889e-38
0.021248572 -0.20502001 0.60300004 1.5305238e-38
0.022397144 -0.20502001 0.60300004 1.5305238e-38
0.023584763 -0.20536001 0.60400003 1.5304882e-38
0.02473524 -0.20536001 0.60400003 1.5304882e-38
0.025842858 -0.20502001 0.60300004 1.5304882e-38
0.026991429 -0.20502001 0.60300004 1.5212687e-38
0.028140003 -0.20502001 0.60300004 1.5120491e-38
0.029240003 -0.20468001 0.60200006 1.5120491e-38
0.03033619 -0.20434001 0.60100001 1.5120844e-38
0.031428572 -0.20400001 0.60000002 1.521304e-38
0.032571428 -0.20400001 0.60000002 1.4753146e-38
0.033714287 -0.20400001 0.60000002 1.2909234e-38
0.034857146 -0.20400001 0.60000002 1.2263157e-38
0.036000002 -0.20400001 0.60000002 1.2170961e-38
0.037142858 -0.20400001 0.60000002 1.2356761e-38
0.036307618 -0.19345999 0.56900001 1.447726e-38
0.037391428 -0.19345999 0.56900001 1.5212687e-38
0.038475242 -0.19345999 0.56900001 1.6319034e-38
0.039559048 -0.19345999 0.56900001 1.6319038e-38
0.040642858 -0.19345999 0.56900001 1.6872212e-38
0.041726667 -0.19345999 0.56900001 1.6780716e-38
0.042885717 -0.19380002 0.57000005 1.6780716e-38
0.043971434 -0.19380002 0.57000005 1.668817e-38
0.045057148 -0.19380002 0.57000005 1.6503779e-38
0.046142861 -0.19380002 0.57000005 1.6595621e-38
0.047228575 -0.19380002 0.57000005 1.6687817e-38
0.048314288 -0.19380002 0.57000005 1.6687817e-38
0.049400005 -0.19380002 0.57000005 1.6780012e-38
0.050485719 -0.19380002 0.57000005 1.6780366e-38
0.05537143 -0.20808002 0.61200005 1.6503779e-38
0.056537148 -0.20808002 0.61200005 1.6411953e-38
0.057514288 -0.20740001 0.61000001 1.6411953e-38
0.058676191 -0.20740001 0.61000001 1.6227209e-38
0.059936188 -0.20773999 0.611 1.6319404e-38
0.061099999 -0.20773999 0.611 1.6503779e-38
0.062263809 -0.20773999 0.611 1.6503779e-38
0.06342762 -0.20773999 0.611 1.6411949e-38
0.06459143 -0.20773999 0.611 1.6504144e-38
0.06597048 -0.20842001 0.61300004 1.6411946e-38
0.067247622 -0.20876001 0.61400002 1.6411946e-38
0.068640009 -0.20944001 0.61600006 1.6319753e-38
0.069813341 -0.20944001 0.61600006 1.6135362e-38
0.071217142 -0.21012001 0.61800003 1.6135715e-38
0.072745718 -0.21114002 0.62100005 1.6135715e-38
0.074047625 -0.21148001 0.62200004 1.6135359e-38
0.075353332 -0.21182001 0.62300003 1.6043163e-38
0.076540001 -0.21182001 0.62300003 1.5858423e-38
0.07785143 -0.21216001 0.62400001 1.5858423e-38
0.079166666 -0.21249999 0.625 1.5583623e-38
0.080357142 -0.21249999 0.625 1.4477275e-38
-0.017620953 -0.21570477 0.63800001 1.8901581e-38
-0.016380001 -0.21536668 0.63700002 1.9177805e-38
-0.015166666 -0.21536668 0.63700002 1.484461e-38
-0.01393143 -0.21502858 0.63600004 1.2540451e-38
-0.012560001 -0.21232381 0.62800002 1.3278016e-38
-0.011345715 -0.21198572 0.62700003 1.3921581e-38
-0.010102857 -0.21097143 0.62400001 1.3829385e-38
-0.0089142863 -0.21097143 0.62400001 1.373791e-38
-0.0077133332 -0.21063334 0.62300003 1.3830105e-38
-0.0065161907 -0.21029525 0.62200004 1.4013423e-38
-0.0053228578 -0.20995715 0.62100005 1.4105619e-38
-0.0041333335 -0.20961905 0.62 1.4105972e-38
-0.002947619 -0.20928095 0.61900002 1.4198168e-38
-0.0017657144 -0.20894288 0.61800003 1.4381843e-38
-0.00058857148 -0.20894288 0.61800003 1.4474038e-38
0.0005847619 -0.20759048 0.61400002 1.4566597e-38
0.0017542857 -0.20759048 0.61400002 1.4658793e-38
0.0029190476 -0.20725238 0.61300004 1.456695e-38
0.0040800003 -0.20691429 0.61200005 1.4751341e-38
0.005237143 -0.20657618 0.611 1.4750985e-38
0.0064009526 -0.20657618 0.611 1.465879e-38
0.0075523811 -0.20623809 0.61000001 1.4659146e-38
0.0087000001 -0.2059 0.60900003 1.4935733e-38
0.0098600006 -0.2059 0.60900003 1.4935733e-38
0.011001905 -0.20556192 0.60800004 1.5120124e-38
0.01216 -0.20556192 0.60800004 1.484462e-38
0.013296192 -0.20522383 0.60700005 1.484462e-38
0.014428572 -0.20488572 0.60600001 1.5120491e-38
0.015582857 -0.20488572 0.60600001 1.5212687e-38
0.016737143 -0.20488572 0.60600001 1.5213406e-38
0.017832382 -0.20420954 0.60400003 1.5213406e-38
0.018982857 -0.20420954 0.60400003 1.5304887e-38
0.020133335 -0.20420954 0.60400003 1.5397082e-38
0.021283811 -0.20420954 0.60400003 1.5397431e-38
0.022434287 -0.20420954 0.60400003 1.5397431e-38
0.023584763 -0.20420954 0.60400003 1.5397434e-38
0.02473524 -0.20420954 0.60400003 1.5397434e-38
0.025885716 -0.20420954 0.60400003 1.5304882e-38
0.027036192 -0.20420954 0.60400003 1.5304882e-38
0.028140003 -0.20387144 0.60300004 1.5120491e-38
0.029288573 -0.20387144 0.60300004 1.5120491e-38
0.03033619 -0.20319524 0.60100001 1.4937538e-38
0.031480953 -0.20319524 0.60100001 1.5029733e-38
0.032625712 -0.20319524 0.60100001 1.4568769e-38
0.033770476 -0.20319524 0.60100001 1.3370226e-38
0.034915239 -0.20319524 0.60100001 1.2079481e-38
0.036059998 -0.20319524 0.60100001 1.1802895e-38
0.037204765 -0.20319524 0.60100001 1.2080151e-38
0.03649905 -0.19339049 0.57200003 1.4385042e-38
0.037391428 -0.19237618 0.56900001 1.5212687e-38
0.038475242 -0.19237618 0.56900001 1.6319034e-38
0.039559048 -0.19237618 0.56900001 1.6411234e-38
0.040642858 -0.19237618 0.56900001 1.6411234e-38
0.041726667 -0.19237618 0.56900001 1.6319741e-38
0.042885717 -0.1927143 0.57000005 1.6411936e-38
0.043971434 -0.1927143 0.57000005 1.6595977e-38
0.045057148 -0.1927143 0.57000005 1.6503781e-38
0.046223812 -0.1930524 0.57100004 1.6595621e-38
0.047228575 -0.1927143 0.57000005 1.6687817e-38
0.048314288 -0.1927143 0.57000005 1.6596337e-38
0.049400005 -0.1927143 0.57000005 1.6688533e-38
0.050485719 -0.1927143 0.57000005 1.6504144e-38
0.05537143 -0.20691429 0.61200005 1.6319753e-38
0.056537148 -0.20691429 0.61200005 1.641123e-38
0.057702862 -0.20691429 0.61200005 1.641123e-38
0.058772378 -0.20657618 0.611 1.6411234e-38
0.059936188 -0.20657618 0.611 1.6411234e-38
0.061099999 -0.20657618 0.611 1.6503781e-38
0.062263809 -0.20657618 0.611 1.6595977e-38
0.06342762 -0.20657618 0.611 1.6504144e-38
0.064697146 -0.20691429 0.61200005 1.6504144e-38
0.06597048 -0.20725238 0.61300004 1.6411949e-38
0.067357138 -0.20792857 0.61500001 1.6411949e-38
0.068640009 -0.20826669 0.61600006 1.6228276e-38
0.069813341 -0.20826669 0.61600006 1.6136081e-38
0.07133238 -0.20928095 0.61900002 1.6136078e-38
0.072628573 -0.20961905 0.62 1.6228274e-38
0.074047625 -0.21029525 0.62200004 1.6136078e-38
0.075353332 -0.21063334 0.62300003 1.6136078e-38
0.076540001 -0.21063334 0.62300003 1.5766946e-38
0.07785143 -0.21097143 0.62400001 1.5766946e-38
0.079420008 -0.21198572 0.62700003 1.5767295e-38
0.080742866 -0.21232381 0.62800002 1.419997e-38
-0.016380001 -0.21415333 0.63700002 1.9177808e-38
-0.015166666 -0.21415333 0.63700002 1.4936809e-38
-0.01393143 -0.21381715 0.63600004 1.2633007e-38
-0.012700001 -0.21348096 0.63500005 1.3278376e-38
-0.011418096 -0.21213619 0.63100004 1.35546e-38
-0.010119048 -0.21011904 0.625 1.3462405e-38
-0.0089142863 -0.20978285 0.62400001 1.3553518e-38
-0.0077133332 -0.20944667 0.62300003 1.3830105e-38
-0.0065161907 -0.20911048 0.62200004 1.4105264e-38
-0.0053228578 -0.2087743 0.62100005 1.4105264e-38
-0.0041333335 -0.2084381 0.62 1.4198168e-38
-0.002947619 -0.20810191 0.61900002 1.4198168e-38
-0.0017657144 -0.20776571 0.61800003 1.419746e-38
-0.00058857148 -0.20776571 0.61800003 1.4381851e-38
0.0005857143 -0.20675714 0.61500001 1.42911e-38
0.0017542857 -0.20642096 0.61400002 1.42911e-38
0.0029190476 -0.20608477 0.61300004 1.4566594e-38
0.0040866667 -0.20608477 0.61300004 1.4750985e-38
0.0052457144 -0.20574857 0.61200005 1.465879e-38
0.0064009526 -0.20541237 0.611 1.465879e-38
0.0075523811 -0.20507619 0.61000001 1.4750985e-38
0.0087142866 -0.20507619 0.61000001 1.4935377e-38
0.0098600006 -0.20474 0.60900003 1.493538e-38
0.01102 -0.20474 0.60900003 1.5211966e-38
0.01216 -0.20440382 0.60800004 1.484462e-38
0.013318096 -0.20440382 0.60800004 1.4936816e-38
0.014428572 -0.20373143 0.60600001 1.50283e-38
0.015582857 -0.20373143 0.60600001 1.5120495e-38
0.016737143 -0.20373143 0.60600001 1.5212687e-38
0.017832382 -0.20305905 0.60400003 1.5212687e-38
0.018982857 -0.20305905 0.60400003 1.5212691e-38
0.020133335 -0.20305905 0.60400003 1.5304887e-38
0.021283811 -0.20305905 0.60400003 1.5305589e-38
0.022434287 -0.20305905 0.60400003 1.5305589e-38
0.023584763 -0.20305905 0.60400003 1.5397434e-38
0.02473524 -0.20305905 0.60400003 1.5397434e-38
0.025885716 -0.20305905 0.60400003 1.5397434e-38
0.027036192 -0.20305905 0.60400003 1.5305238e-38
0.028140003 -0.20272286 0.60300004 1.5212687e-38
0.029288573 -0.20272286 0.60300004 1.5120491e-38
0.03038667 -0.20238669 0.60200006 1.50283e-38
0.031480953 -0.20205048 0.60100001 1.50283e-38
0.032625712 -0.20205048 0.60100001 1.4752441e-38
0.033826668 -0.20238669 0.60200006 1.4291463e-38
0.034973338 -0.20238669 0.60200006 1.2631952e-38
0.036059998 -0.20205048 0.60100001 1.097243e-38
0.037204765 -0.20205048 0.60100001 1.125041e-38
0.03649905 -0.19230096 0.57200003 1.4016279e-38
0.037391428 -0.19129238 0.56900001 1.530451e-38
0.038475242 -0.19129238 0.56900001 1.6410857e-38
0.039559048 -0.19129238 0.56900001 1.641123e-38
0.040642858 -0.19129238 0.56900001 1.6319034e-38
0.041726667 -0.19129238 0.56900001 1.6411583e-38
0.042885717 -0.19162859 0.57000005 1.6411583e-38
0.043971434 -0.19162859 0.57000005 1.6503426e-38
0.045136191 -0.19196478 0.57100004 1.6503426e-38
0.046223812 -0.19196478 0.57100004 1.6504498e-38
0.047228575 -0.19162859 0.57000005 1.6596693e-38
0.048314288 -0.19162859 0.57000005 1.668817e-38
0.049400005 -0.19162859 0.57000005 1.6780366e-38
0.050485719 -0.19162859 0.57000005 1.6595974e-38
0.05546191 -0.20608477 0.61300004 1.6411583e-38
0.056629524 -0.20608477 0.61300004 1.6319034e-38
0.057797145 -0.20608477 0.61300004 1.641123e-38
0.058868576 -0.20574857 0.61200005 1.641123e-38
0.060034286 -0.20574857 0.61200005 1.641123e-38
0.0612 -0.20574857 0.61200005 1.641123e-38
0.062365722 -0.20574857 0.61200005 1.6503426e-38
0.063531436 -0.20574857 0.61200005 1.6595625e-38
0.064802863 -0.20608477 0.61300004 1.650343e-38
0.066078097 -0.20642096 0.61400002 1.6411946e-38
0.067357138 -0.20675714 0.61500001 1.6411946e-38
0.068640009 -0.20709334 0.61600006 1.631975e-38
0.069813341 -0.20709334 0.61600006 1.631975e-38
0.07133238 -0.20810191 0.61900002 1.6227557e-38
0.072628573 -0.2084381 0.62 1.6227557e-38
0.074166663 -0.20944667 0.62300003 1.6227555e-38
0.075353332 -0.20944667 0.62300003 1.631975e-38
0.076662861 -0.20978285 0.62400001 1.5766946e-38
0.07797619 -0.21011904 0.625 1.5766946e-38
0.079420008 -0.21079144 0.62700003 1.5767295e-38
0.080742866 -0.21112762 0.62800002 1.4015578e-38
-0.016380001 -0.21294001 0.63700002 1.899378e-38
-0.015166666 -0.21294001 0.63700002 1.5029367e-38
-0.01393143 -0.21260571 0.63600004 1.2818117e-38
-0.012700001 -0.21227145 0.63500005 1.3094704e-38
-0.011472382 -0.21193714 0.634 1.3370572e-38
-0.010183809 -0.21026573 0.62900001 1.3278376e-38
-0.0089285709 -0.20892857 0.625 1.3370915e-38
-0.0077133332 -0.20826 0.62300003 1.3739698e-38
-0.0065161907 -0.20792572 0.62200004 1.4105616e-38
-0.0053228578 -0.20759144 0.62100005 1.4105616e-38
-0.0041333335 -0.20725714 0.62 1.4198168e-38
-0.002947619 -0.20692287 0.61900002 1.4105972e-38
-0.0017657144 -0.20658858 0.61800003 1.4197812e-38
-0.00058857148 -0.20658858 0.61800003 1.4474399e-38
0.0005857143 -0.20558572 0.61500001 1.4291449e-38
0.0017542857 -0.20525144 0.61400002 1.4383645e-38
0.0029190476 -0.20491715 0.61300004 1.4750623e-38
0.0040866667 -0.20491715 0.61300004 1.4935014e-38
0.0052457144 -0.20458287 0.61200005 1.4751341e-38
0.006411429 -0.20458287 0.61200005 1.4751341e-38
0.0075647617 -0.20424856 0.611 1.4843537e-38
0.0087142866 -0.20391428 0.61000001 1.4935733e-38
0.0098761907 -0.20391428 0.61000001 1.4935733e-38
0.01102 -0.20358001 0.60900003 1.521232e-38
0.012180001 -0.20358001 0.60900003 1.5028649e-38
0.013318096 -0.20324573 0.60800004 1.4936453e-38
0.014428572 -0.20257714 0.60600001 1.49361e-38
0.015582857 -0.20257714 0.60600001 1.5120491e-38
0.016737143 -0.20257714 0.60600001 1.521304e-38
0.017832382 -0.20190859 0.60400003 1.521304e-38
0.018982857 -0.20190859 0.60400003 1.5212687e-38
0.020200001 -0.20257714 0.60600001 1.5304882e-38
0.021354286 -0.20257714 0.60600001 1.5305235e-38
0.022508573 -0.20257714 0.60600001 1.5397431e-38
0.023662858 -0.20257714 0.60600001 1.5397434e-38
0.024817143 -0.20257714 0.60600001 1.5397434e-38
0.025885716 -0.20190859 0.60400003 1.5397434e-38
0.027036192 -0.20190859 0.60400003 1.5397434e-38
0.028186668 -0.20190859 0.60400003 1.5304882e-38
0.029337144 -0.20190859 0.60400003 1.5212687e-38
0.030437144 -0.2015743 0.60300004 1.5120491e-38
0.031585716 -0.2015743 0.60300004 1.5028295e-38
0.032734286 -0.2015743 0.60300004 1.5119416e-38
0.03388286 -0.2015743 0.60300004 1.5027221e-38
0.034973338 -0.20124002 0.60200006 1.4106709e-38
0.036120001 -0.20124002 0.60200006 1.1433036e-38
0.037266672 -0.20124002 0.60200006 1.1432987e-38
0.03649905 -0.19121143 0.57200003 1.4659834e-38
0.03752286 -0.19087715 0.57100004 1.5304512e-38
0.038542863 -0.19054288 0.57000005 1.6134273e-38
0.039559048 -0.19020858 0.56900001 1.6042452e-38
0.040642858 -0.19020858 0.56900001 1.6319038e-38
0.041726667 -0.19020858 0.56900001 1.6320106e-38
0.042885717 -0.19054288 0.57000005 1.6320106e-38
0.043971434 -0.19054288 0.57000005 1.6411586e-38
0.045136191 -0.19087715 0.57100004 1.6411586e-38
0.046223812 -0.19087715 0.57100004 1.6411586e-38
0.047228575 -0.19054288 0.57000005 1.6411586e-38
0.048314288 -0.19054288 0.57000005 1.6411583e-38
0.049400005 -0.19054288 0.57000005 1.6411583e-38
0.050485719 -0.19054288 0.57000005 1.6411586e-38
0.05546191 -0.20491715 0.61300004 1.6411586e-38
0.056629524 -0.20491715 0.61300004 1.6227562e-38
0.057702862 -0.20458287 0.61200005 1.6319757e-38
0.058868576 -0.20458287 0.61200005 1.6411953e-38
0.060034286 -0.20458287 0.61200005 1.6319757e-38
0.0612 -0.20458287 0.61200005 1.6320106e-38
0.062365722 -0.20458287 0.61200005 1.6412302e-38
0.063531436 -0.20458287 0.61200005 1.6503426e-38
0.064802863 -0.20491715 0.61300004 1.641123e-38
0.066078097 -0.20525144 0.61400002 1.6411586e-38
0.067357138 -0.20558572 0.61500001 1.6411586e-38
0.068640009 -0.20592001 0.61600006 1.6319753e-38
0.069813341 -0.20592001 0.61600006 1.6319753e-38
0.07133238 -0.20692287 0.61900002 1.631975e-38
0.072628573 -0.20725714 0.62 1.6227555e-38
0.074166663 -0.20826 0.62300003 1.5674388e-38
0.075353332 -0.20826 0.62300003 1.5858779e-38
0.076785713 -0.20892857 0.625 1.5766228e-38
0.078225717 -0.20959716 0.62700003 1.5766228e-38
0.079546668 -0.20993143 0.62800002 1.5582188e-38
0.080871426 -0.21026573 0.62900001 1.4199254e-38
0.082200006 -0.21060002 0.63000005 1.3094338e-38
0.083929524 -0.21193714 0.634 1.6689968e-38
-0.017676191 -0.21272382 0.64000005 1.8994496e-38
-0.016380001 -0.21172667 0.63700002 1.8993426e-38
-0.015166666 -0.21172667 0.63700002 1.5213406e-38
-0.01393143 -0.2113943 0.63600004 1.2725558e-38
-0.012700001 -0.21106192 0.63500005 1.290995e-38
-0.011490476 -0.21106192 0.63500005 1.3462407e-38
-0.010183809 -0.20906761 0.62900001 1.3370212e-38
-0.0089571439 -0.20840287 0.62700003 1.3462029e-38
-0.0077133332 -0.20707333 0.62300003 1.3738616e-38
-0.0065161907 -0.20674096 0.62200004 1.4105253e-38
-0.0053228578 -0.20640859 0.62100005 1.4105253e-38
-0.0041333335 -0.20607619 0.62 1.4105256e-38
-0.002947619 -0.20574382 0.61900002 1.4197452e-38
-0.0017685716 -0.20574382 0.61900002 1.4289647e-38
-0.00058857148 -0.20541143 0.61800003 1.4474038e-38
0.0005857143 -0.20441429 0.61500001 1.4107411e-38
0.0017542857 -0.20408191 0.61400002 1.4383998e-38
0.0029238097 -0.20408191 0.61400002 1.4566947e-38
0.0040866667 -0.20374954 0.61300004 1.4659143e-38
0.0052457144 -0.20341715 0.61200005 1.4659146e-38
0.006411429 -0.20341715 0.61200005 1.4751341e-38
0.0075647617 -0.20308475 0.611 1.4843537e-38
0.0087285712 -0.20308475 0.611 1.4935733e-38
0.0098761907 -0.20275238 0.61000001 1.5027572e-38
0.011038096 -0.20275238 0.61000001 1.5211964e-38
0.012180001 -0.20242001 0.60900003 1.4936453e-38
0.013340001 -0.20242001 0.60900003 1.4936453e-38
0.014452382 -0.20175526 0.60700005 1.5120491e-38
0.015608573 -0.20175526 0.60700005 1.5212687e-38
0.016764762 -0.20175526 0.60700005 1.521304e-38
0.017891428 -0.20142286 0.60600001 1.5397431e-38
0.019045714 -0.20142286 0.60600001 1.5212694e-38
0.020200001 -0.20142286 0.60600001 1.5397085e-38
0.021354286 -0.20142286 0.60600001 1.5397434e-38
0.022508573 -0.20142286 0.60600001 1.5397434e-38
0.023662858 -0.20142286 0.60600001 1.5580749e-38
0.024817143 -0.20142286 0.60600001 1.5580749e-38
0.025971429 -0.20142286 0.60600001 1.5580749e-38
0.027125714 -0.20142286 0.60600001 1.5580749e-38
0.028279999 -0.20142286 0.60600001 1.5304882e-38
0.029337144 -0.2007581 0.60400003 1.5304882e-38
0.030437144 -0.20042573 0.60300004 1.5120495e-38
0.031585716 -0.20042573 0.60300004 1.5120495e-38
0.032734286 -0.20042573 0.60300004 1.5211612e-38
0.03388286 -0.20042573 0.60300004 1.5488199e-38
0.034973338 -0.20009336 0.60200006 1.4751372e-38
0.03438 -0.19045429 0.57300001 1.3368438e-38
0.035409525 -0.1901219 0.57200003 1.3185439e-38
0.03649905 -0.1901219 0.57200003 1.4383983e-38
0.03752286 -0.18978953 0.57100004 1.5211966e-38
0.038542863 -0.18945716 0.57000005 1.6133923e-38
0.039559048 -0.18912476 0.56900001 1.6042447e-38
0.040642858 -0.18912476 0.56900001 1.6319034e-38
0.041726667 -0.18912476 0.56900001 1.6227192e-38
0.042885717 -0.18945716 0.57000005 1.6227192e-38
0.043971434 -0.18945716 0.57000005 1.6319034e-38
0.045136191 -0.18978953 0.57100004 1.6319034e-38
0.046304762 -0.1901219 0.57200003 1.631939e-38
0.047311429 -0.18978953 0.57100004 1.6411586e-38
0.04839905 -0.18978953 0.57100004 1.641123e-38
0.049573336 -0.1901219 0.57200003 1.6319034e-38
0.05066286 -0.1901219 0.57200003 1.6319387e-38
0.05546191 -0.20374954 0.61300004 1.6319387e-38
0.056629524 -0.20374954 0.61300004 1.6319034e-38
0.057702862 -0.20341715 0.61200005 1.641123e-38
0.058868576 -0.20341715 0.61200005 1.6595625e-38
0.060034286 -0.20341715 0.61200005 1.650343e-38
0.0612 -0.20341715 0.61200005 1.6319743e-38
0.062365722 -0.20341715 0.61200005 1.6411939e-38
0.063531436 -0.20341715 0.61200005 1.6503781e-38
0.064802863 -0.20374954 0.61300004 1.6411586e-38
0.066078097 -0.20408191 0.61400002 1.6411583e-38
0.067466669 -0.20474669 0.61600006 1.6411583e-38
0.068640009 -0.20474669 0.61600006 1.6411586e-38
0.069813341 -0.20474669 0.61600006 1.631939e-38
0.07133238 -0.20574382 0.61900002 1.6227555e-38
0.072628573 -0.20607619 0.62 1.631975e-38
0.074285716 -0.20740572 0.62400001 1.5950619e-38
0.075474285 -0.20740572 0.62400001 1.5766228e-38
0.076785713 -0.20773809 0.625 1.5766228e-38
0.078225717 -0.20840287 0.62700003 1.5674032e-38
0.079673328 -0.20906761 0.62900001 1.5582541e-38
0.081000008 -0.20940003 0.63000005 1.4660585e-38
0.082200006 -0.20940003 0.63000005 1.3648242e-38
0.083664767 -0.21006477 0.63200003 1.6875089e-38
-0.017676191 -0.21150477 0.64000005 1.9178168e-38
-0.016405715 -0.2108438 0.63800001 1.8993426e-38
-0.015166666 -0.21051334 0.63700002 1.5213406e-38
-0.013953334 -0.21051334 0.63700002 1.2725203e-38
-0.012720001 -0.21018288 0.63600004 1.3001789e-38
-0.011490476 -0.2098524 0.63500005 1.3645717e-38
-0.010264762 -0.2095219 0.634 1.3645717e-38
-0.0089571439 -0.20720859 0.62700003 1.3644988e-38
-0.0077133332 -0.20588668 0.62300003 1.3921575e-38
-0.0065266667 -0.20588668 0.62300003 1.4013058e-38
-0.0053314292 -0.2055562 0.62200004 1.4105253e-38
-0.0041399999 -0.20522572 0.62100005 1.419673e-38
-0.0029523808 -0.20489523 0.62 1.4381121e-38
-0.0017685716 -0.20456477 0.61900002 1.438184e-38
-0.00058857148 -0.2042343 0.61800003 1.4566231e-38
0.0005857143 -0.20324285 0.61500001 1.4199607e-38
0.0017542857 -0.20291239 0.61400002 1.4291802e-38
0.0029238097 -0.20291239 0.61400002 1.456695e-38
0.0040866667 -0.20258191 0.61300004 1.4659146e-38
0.0052542859 -0.20258191 0.61300004 1.4476194e-38
0.006421905 -0.20258191 0.61300004 1.4568389e-38
0.0075771436 -0.20225143 0.61200005 1.4843537e-38
0.0087285712 -0.20192094 0.611 1.4935733e-38
0.0098761907 -0.20159048 0.61000001 1.4752781e-38
0.011038096 -0.20159048 0.61000001 1.4844976e-38
0.012180001 -0.20126002 0.60900003 1.4844976e-38
0.013340001 -0.20126002 0.60900003 1.4937172e-38
0.014500001 -0.20126002 0.60900003 1.5120847e-38
0.015634285 -0.20092954 0.60800004 1.5120847e-38
0.016792383 -0.20092954 0.60800004 1.530451e-38
0.017950477 -0.20092954 0.60800004 1.5396705e-38
0.019108573 -0.20092954 0.60800004 1.5212687e-38
0.020266667 -0.20092954 0.60800004 1.5489274e-38
0.021424763 -0.20092954 0.60800004 1.5489997e-38
0.022582859 -0.20092954 0.60800004 1.5397801e-38
0.023701908 -0.20059906 0.60700005 1.5672945e-38
0.024858097 -0.20059906 0.60700005 1.576514e-38
0.025971429 -0.20026857 0.60600001 1.5672945e-38
0.027125714 -0.20026857 0.60600001 1.5672945e-38
0.028279999 -0.20026857 0.60600001 1.5397434e-38
0.029337144 -0.19960763 0.60400003 1.5397434e-38
0.030487619 -0.19960763 0.60400003 1.5304882e-38
0.031638097 -0.19960763 0.60400003 1.5120491e-38
0.032734286 -0.19927715 0.60300004 1.49361e-38
0.03388286 -0.19927715 0.60300004 1.5120491e-38
0.03503143 -0.19927715 0.60300004 1.5488202e-38
0.03438 -0.18936287 0.57300001 1.4381854e-38
0.035409525 -0.18903239 0.57200003 1.4013045e-38
0.03649905 -0.18903239 0.57200003 1.4658414e-38
0.037588574 -0.18903239 0.57200003 1.5027212e-38
0.038610481 -0.18870191 0.57100004 1.6041364e-38
0.039698098 -0.18870191 0.57100004 1.6041727e-38
0.04071429 -0.18837145 0.57000005 1.641051e-38
0.041800003 -0.18837145 0.57000005 1.6135352e-38
0.042885717 -0.18837145 0.57000005 1.6227548e-38
0.044048574 -0.18870191 0.57100004 1.6227192e-38
0.045215238 -0.18903239 0.57200003 1.6319387e-38
0.046304762 -0.18903239 0.57200003 1.6319387e-38
0.047394291 -0.18903239 0.57200003 1.6319387e-38
0.048483811 -0.18903239 0.57200003 1.6319387e-38
0.049573336 -0.18903239 0.57200003 1.6411583e-38
0.05066286 -0.18903239 0.57200003 1.6319387e-38
0.055552382 -0.20291239 0.61400002 1.6319387e-38
0.056721907 -0.20291239 0.61400002 1.6226839e-38
0.057797145 -0.20258191 0.61300004 1.641123e-38
0.058964763 -0.20258191 0.61300004 1.650343e-38
0.060132384 -0.20258191 0.61300004 1.650343e-38
0.061300006 -0.20258191 0.61300004 1.6319387e-38
0.062365722 -0.20225143 0.61200005 1.6503779e-38
0.063531436 -0.20225143 0.61200005 1.6503781e-38
0.064908572 -0.20291239 0.61400002 1.6503781e-38
0.066078097 -0.20291239 0.61400002 1.6503779e-38
0.067466669 -0.20357335 0.61600006 1.6411583e-38
0.068640009 -0.20357335 0.61600006 1.6411586e-38
0.07004001 -0.2042343 0.61800003 1.631939e-38
