# .PCD v0.7 - Point Cloud Data file format
VERSION 0.7
FIELDS x y z rgb
SIZE 4 4 4 4
TYPE F F F F
COUNT 1 1 1 1
WIDTH 994
HEIGHT 1
VIEWPOINT 0 0 0 1 0 0 0
POINTS 994
DATA ascii
0.046400953 -0.21746953 0.58700001 1.7426834e-38
0.047599997 -0.21783999 0.588 1.7426828e-38
0.048719998 -0.21783999 0.588 1.7426828e-38
0.04984 -0.21783999 0.588 1.7426831e-38
0.051046669 -0.21821049 0.58900005 1.7426831e-38
0.052168574 -0.21821049 0.58900005 1.7519024e-38
0.053290483 -0.21821049 0.58900005 1.7519024e-38
0.054412384 -0.21821049 0.58900005 1.7334638e-38
0.055534288 -0.21821049 0.58900005 1.7611225e-38
0.056752384 -0.21858096 0.59000003 1.7611222e-38
0.057876196 -0.21858096 0.59000003 1.7519026e-38
0.059099998 -0.21895143 0.59100002 1.7611222e-38
0.060327619 -0.21932191 0.59200001 1.7611222e-38
0.061455239 -0.21932191 0.59200001 1.770342e-38
0.062688574 -0.21969239 0.59300005 1.770342e-38
0.063818097 -0.21969239 0.59300005 1.7426828e-38
0.064947627 -0.21969239 0.59300005 1.7426828e-38
0.066188574 -0.22006287 0.59400004 1.7334632e-38
0.067320004 -0.22006287 0.59400004 1.7334632e-38
0.068566665 -0.22043335 0.59500003 1.7334632e-38
0.069817141 -0.22080381 0.59600002 1.7242437e-38
0.070952378 -0.22080381 0.59600002 1.7150241e-38
0.072087623 -0.22080381 0.59600002 1.7150241e-38
0.073345713 -0.22117428 0.597 1.7150241e-38
0.074607626 -0.22154479 0.59800005 1.7150241e-38
0.075873338 -0.22191525 0.59900004 1.7058401e-38
0.07701429 -0.22191525 0.59900004 1.7150597e-38
0.078416191 -0.22265619 0.60100001 1.7242074e-38
0.07969334 -0.22302669 0.60200006 1.7057683e-38
0.080974288 -0.22339715 0.60300004 1.6965841e-38
0.082259052 -0.22376762 0.60400003 1.678145e-38
0.084100001 -0.22562002 0.60900003 1.6597067e-38
0.085400008 -0.22599049 0.61000001 1.6504872e-38
0.086703807 -0.22636095 0.611 1.6321188e-38
0.088011436 -0.22673145 0.61200005 1.5030449e-38
-0.018134287 -0.21266572 0.57700002 1.8165817e-38
-0.017005716 -0.21229716 0.57600003 1.7889593e-38
-0.015880954 -0.21192859 0.57500005 2.0102286e-38
-0.014785715 -0.21192859 0.57500005 2.1852179e-38
-0.013690477 -0.21192859 0.57500005 2.2774125e-38
-0.012573333 -0.21156 0.574 2.2589374e-38
-0.01146 -0.21119143 0.57300001 1.9362527e-38
-0.010350476 -0.21082287 0.57200003 1.8624997e-38
-0.0092447624 -0.2104543 0.57100004 1.8717193e-38
-0.0081571434 -0.2104543 0.57100004 1.8717553e-38
-0.0070695239 -0.2104543 0.57100004 1.9916096e-38
-0.0059819054 -0.2104543 0.57100004 2.0284516e-38
-0.004885715 -0.21008573 0.57000005 1.6873277e-38
-0.0038000003 -0.21008573 0.57000005 1.6226819e-38
-0.0027190479 -0.2104543 0.57100004 1.4659493e-38
-0.0016942859 -0.21856289 0.59300005 1.4476934e-38
-0.00056476193 -0.21856289 0.59300005 1.475352e-38
0.00056476193 -0.21856289 0.59300005 1.4107062e-38
0.0016942859 -0.21856289 0.59300005 1.1341193e-38
0.0028142859 -0.21782573 0.59100002 1.1522694e-38
0.00392 -0.21672 0.588 1.2075867e-38
0.0050314283 -0.21635143 0.58700001 1.2352454e-38
0.0061495239 -0.21635143 0.58700001 1.2352454e-38
0.007267619 -0.21635143 0.58700001 1.2077656e-38
0.0083857141 -0.21635143 0.58700001 1.2907416e-38
0.0095038097 -0.21635143 0.58700001 1.2541155e-38
0.01064 -0.21672 0.588 1.4938241e-38
0.011759999 -0.21672 0.588 1.6044589e-38
0.012901906 -0.2170886 0.58900005 1.8533871e-38
0.014071429 -0.21782573 0.59100002 1.8442048e-38
0.015222857 -0.21819429 0.59200001 1.8165461e-38
0.016378097 -0.21856289 0.59300005 1.7796327e-38
0.01750762 -0.21856289 0.59300005 1.7427544e-38
0.018637145 -0.21856289 0.59300005 1.7334632e-38
0.019766668 -0.21856289 0.59300005 1.7150241e-38
0.020860951 -0.21819429 0.59200001 1.7057329e-38
0.021988573 -0.21819429 0.59200001 1.6965134e-38
0.023077143 -0.21782573 0.59100002 1.6965487e-38
0.024202857 -0.21782573 0.59100002 1.6873291e-38
0.025285715 -0.21745716 0.59000003 1.6504872e-38
0.026409525 -0.21745716 0.59000003 1.6597067e-38
0.027486669 -0.2170886 0.58900005 1.6505228e-38
0.028608572 -0.2170886 0.58900005 1.6966206e-38
0.029730478 -0.2170886 0.58900005 1.6966202e-38
0.030852385 -0.2170886 0.58900005 1.6966202e-38
0.031974286 -0.2170886 0.58900005 1.7058037e-38
0.033096194 -0.2170886 0.58900005 1.7058037e-38
0.034218099 -0.2170886 0.58900005 1.6689615e-38
0.03534 -0.2170886 0.58900005 1.7150593e-38
0.036461908 -0.2170886 0.58900005 1.7150597e-38
0.037519999 -0.21672 0.588 1.7150597e-38
0.03864 -0.21672 0.588 1.7334269e-38
0.039760001 -0.21672 0.588 1.7610856e-38
0.040879998 -0.21672 0.588 1.7518661e-38
0.041928571 -0.21635143 0.58700001 1.7426465e-38
0.043046668 -0.21635143 0.58700001 1.724244e-38
0.044239998 -0.21672 0.588 1.7426831e-38
0.045282859 -0.21635143 0.58700001 1.7519026e-38
0.046400953 -0.21635143 0.58700001 1.7519026e-38
0.047599997 -0.21672 0.588 1.7426828e-38
0.048719998 -0.21672 0.588 1.7519024e-38
0.04984 -0.21672 0.588 1.7519026e-38
0.051046669 -0.2170886 0.58900005 1.7519026e-38
0.052168574 -0.2170886 0.58900005 1.7519024e-38
0.053290483 -0.2170886 0.58900005 1.7519024e-38
0.054412384 -0.2170886 0.58900005 1.7426828e-38
0.055628575 -0.21745716 0.59000003 1.7611219e-38
0.056752384 -0.21745716 0.59000003 1.7611219e-38
0.057974286 -0.21782573 0.59100002 1.7611219e-38
0.059099998 -0.21782573 0.59100002 1.7611222e-38
0.060327619 -0.21819429 0.59200001 1.7611222e-38
0.061455239 -0.21819429 0.59200001 1.7703418e-38
0.062688574 -0.21856289 0.59300005 1.7703418e-38
0.063818097 -0.21856289 0.59300005 1.7519024e-38
0.064947627 -0.21856289 0.59300005 1.7426828e-38
0.066188574 -0.21893145 0.59400004 1.7426828e-38
0.067320004 -0.21893145 0.59400004 1.7334632e-38
0.068566665 -0.21930002 0.59500003 1.7334988e-38
0.069817141 -0.21966858 0.59600002 1.7427184e-38
0.071071431 -0.22003715 0.597 1.724244e-38
0.072208568 -0.22003715 0.597 1.7150244e-38
0.073468573 -0.22040574 0.59800005 1.7150241e-38
0.074607626 -0.22040574 0.59800005 1.7058045e-38
0.075873338 -0.22077431 0.59900004 1.7242074e-38
0.077142857 -0.22114287 0.60000002 1.7242074e-38
0.078416191 -0.22151144 0.60100001 1.7150241e-38
0.07969334 -0.22188002 0.60200006 1.7058045e-38
0.080974288 -0.22224858 0.60300004 1.6873654e-38
0.082259052 -0.22261715 0.60400003 1.6781459e-38
0.084238097 -0.22482857 0.61000001 1.6597067e-38
0.085540004 -0.22519714 0.611 1.6504872e-38
0.086703807 -0.22519714 0.611 1.6504858e-38
0.088011436 -0.22556573 0.61200005 1.5121923e-38
-0.018102858 -0.21120001 0.57600003 1.8257291e-38
-0.016976191 -0.21083334 0.57500005 1.8165101e-38
-0.015880954 -0.21083334 0.57500005 2.0930958e-38
-0.014785715 -0.21083334 0.57500005 2.2496825e-38
-0.013666667 -0.21046667 0.574 2.2220238e-38
-0.012551429 -0.21010001 0.57300001 2.0930944e-38
-0.01144 -0.20973335 0.57200003 1.8165075e-38
-0.010350476 -0.20973335 0.57200003 1.7704497e-38
-0.0092447624 -0.20936668 0.57100004 1.8073279e-38
-0.0081428578 -0.20900002 0.57000005 1.8717556e-38
-0.0070571434 -0.20900002 0.57000005 1.9823903e-38
-0.005960952 -0.20863333 0.56900001 1.963843e-38
-0.0048771431 -0.20863333 0.56900001 1.5674018e-38
-0.0038000003 -0.20900002 0.57000005 1.4108856e-38
-0.0028238096 -0.21743335 0.59300005 1.401666e-38
-0.0016942859 -0.21743335 0.59300005 1.4477299e-38
-0.00056476193 -0.21743335 0.59300005 1.4753886e-38
0.00056476193 -0.21743335 0.59300005 1.4199254e-38
0.0016942859 -0.21743335 0.59300005 1.1341189e-38
0.0028190475 -0.21706666 0.59200001 1.1430875e-38
0.0039266669 -0.21596667 0.58900005 1.1799658e-38
0.0050314283 -0.21523334 0.58700001 1.1983322e-38
0.0061495239 -0.21523334 0.58700001 1.2259908e-38
0.007267619 -0.21523334 0.58700001 1.1985467e-38
0.0083999997 -0.2156 0.588 1.2999619e-38
0.0095199998 -0.2156 0.588 1.2817402e-38
0.01064 -0.2156 0.588 1.4384728e-38
0.011780001 -0.21596667 0.58900005 1.4846066e-38
0.012901906 -0.21596667 0.58900005 1.751974e-38
0.014095238 -0.21706666 0.59200001 1.8533505e-38
0.015222857 -0.21706666 0.59200001 1.8533505e-38
0.016378097 -0.21743335 0.59300005 1.8072902e-38
0.01750762 -0.21743335 0.59300005 1.7150946e-38
0.018637145 -0.21743335 0.59300005 1.7242437e-38
0.019766668 -0.21743335 0.59300005 1.7058045e-38
0.020860951 -0.21706666 0.59200001 1.6781461e-38
0.021988573 -0.21706666 0.59200001 1.6873657e-38
0.023077143 -0.2167 0.59100002 1.6873646e-38
0.024202857 -0.2167 0.59100002 1.6873646e-38
0.025285715 -0.21633334 0.59000003 1.6873643e-38
0.026409525 -0.21633334 0.59000003 1.6965839e-38
0.027486669 -0.21596667 0.58900005 1.6597789e-38
0.028608572 -0.21596667 0.58900005 1.6874376e-38
0.029730478 -0.21596667 0.58900005 1.6966202e-38
0.030852385 -0.21596667 0.58900005 1.7058397e-38
0.031974286 -0.21596667 0.58900005 1.6966202e-38
0.033096194 -0.21596667 0.58900005 1.7058397e-38
0.034218099 -0.21596667 0.58900005 1.7058031e-38
0.03534 -0.21596667 0.58900005 1.7150227e-38
0.036461908 -0.21596667 0.58900005 1.7242074e-38
0.037519999 -0.2156 0.588 1.7242074e-38
0.03864 -0.2156 0.588 1.7426465e-38
0.039760001 -0.2156 0.588 1.7426465e-38
0.040879998 -0.2156 0.588 1.7518661e-38
0.041999999 -0.2156 0.588 1.7426465e-38
0.043120001 -0.2156 0.588 1.7427184e-38
0.044239998 -0.2156 0.588 1.7888162e-38
0.045359999 -0.2156 0.588 1.7519024e-38
0.04648 -0.2156 0.588 1.7426828e-38
0.047599997 -0.2156 0.588 1.7610856e-38
0.04880286 -0.21596667 0.58900005 1.7610856e-38
0.049924765 -0.21596667 0.58900005 1.7702699e-38
0.051133335 -0.21633334 0.59000003 1.7702699e-38
0.052257147 -0.21633334 0.59000003 1.7519024e-38
0.053380955 -0.21633334 0.59000003 1.7426828e-38
0.054504763 -0.21633334 0.59000003 1.7334635e-38
0.055628575 -0.21633334 0.59000003 1.7519026e-38
0.056752384 -0.21633334 0.59000003 1.7611222e-38
0.057974286 -0.2167 0.59100002 1.7703418e-38
0.059099998 -0.2167 0.59100002 1.7611575e-38
0.060327619 -0.21706666 0.59200001 1.751938e-38
0.061455239 -0.21706666 0.59200001 1.7519024e-38
0.062688574 -0.21743335 0.59300005 1.7519024e-38
0.063818097 -0.21743335 0.59300005 1.7427184e-38
0.064947627 -0.21743335 0.59300005 1.7427184e-38
0.066188574 -0.21780002 0.59400004 1.7334632e-38
0.067320004 -0.21780002 0.59400004 1.7334632e-38
0.068566665 -0.21816668 0.59500003 1.7334988e-38
0.069817141 -0.21853334 0.59600002 1.7427184e-38
0.071071431 -0.2189 0.597 1.7334282e-38
0.072208568 -0.2189 0.597 1.7242086e-38
0.073468573 -0.21926668 0.59800005 1.7150244e-38
0.074732378 -0.21963336 0.59900004 1.7150244e-38
0.076000005 -0.22000001 0.60000002 1.7150241e-38
0.077142857 -0.22000001 0.60000002 1.7150241e-38
0.078416191 -0.22036667 0.60100001 1.724244e-38
0.07969334 -0.22073334 0.60200006 1.7058048e-38
0.080974288 -0.22110002 0.60300004 1.6689266e-38
0.082667626 -0.22256668 0.60700005 1.6689266e-38
0.084376194 -0.22403333 0.611 1.6597419e-38
0.08568 -0.22440003 0.61200005 1.6505223e-38
0.086845718 -0.22440003 0.61200005 1.6321188e-38
0.088011436 -0.22440003 0.61200005 1.5030449e-38
-0.018102858 -0.21010287 0.57600003 1.8072539e-38
-0.016976191 -0.20973812 0.57500005 1.8071467e-38
-0.015880954 -0.20973812 0.57500005 2.1113912e-38
-0.014785715 -0.20973812 0.57500005 2.1668509e-38
-0.013666667 -0.20937333 0.574 2.1115336e-38
-0.012551429 -0.20900857 0.57300001 1.8811912e-38
-0.01144 -0.20864381 0.57200003 1.779776e-38
-0.010350476 -0.20864381 0.57200003 1.7704853e-38
-0.0092447624 -0.20827906 0.57100004 1.7981439e-38
-0.0081428578 -0.20791429 0.57000005 1.8625357e-38
-0.0070571434 -0.20791429 0.57000005 1.9086335e-38
-0.005960952 -0.20754953 0.56900001 1.9177452e-38
-0.0048771431 -0.20754953 0.56900001 1.5028649e-38
-0.0039466666 -0.21593906 0.59200001 1.4108493e-38
-0.0028190475 -0.21593906 0.59200001 1.438508e-38
-0.0016914286 -0.21593906 0.59200001 1.4660959e-38
-0.00056476193 -0.21630383 0.59300005 1.4937546e-38
0.00056476193 -0.21630383 0.59300005 1.4383645e-38
0.0016942859 -0.21630383 0.59300005 1.1617776e-38
0.0028190475 -0.21593906 0.59200001 1.1155004e-38
0.0039400002 -0.21557429 0.59100002 1.1615982e-38
0.0050485721 -0.21484478 0.58900005 1.180036e-38
0.0061704768 -0.21484478 0.58900005 1.2261338e-38
0.0072923815 -0.21484478 0.58900005 1.2077663e-38
0.0083999997 -0.21448 0.588 1.3091814e-38
0.0095199998 -0.21448 0.588 1.2909598e-38
0.01064 -0.21448 0.588 1.4384728e-38
0.011780001 -0.21484478 0.58900005 1.4844623e-38
0.012901906 -0.21484478 0.58900005 1.7794883e-38
0.014095238 -0.21593906 0.59200001 1.8073265e-38
0.015248572 -0.21630383 0.59300005 1.8257656e-38
0.016405717 -0.21666858 0.59400004 1.8257305e-38
0.01750762 -0.21630383 0.59300005 1.7243153e-38
0.018637145 -0.21630383 0.59300005 1.7242793e-38
0.019766668 -0.21630383 0.59300005 1.7058401e-38
0.020896193 -0.21630383 0.59300005 1.678181e-38
0.021988573 -0.21593906 0.59200001 1.678181e-38
0.02311619 -0.21593906 0.59200001 1.6689619e-38
0.024243811 -0.21593906 0.59200001 1.6781814e-38
0.025328573 -0.21557429 0.59100002 1.687401e-38
0.026454287 -0.21557429 0.59100002 1.687401e-38
0.027533336 -0.21520954 0.59000003 1.6689982e-38
0.028608572 -0.21484478 0.58900005 1.6966569e-38
0.029730478 -0.21484478 0.58900005 1.7058397e-38
0.030852385 -0.21484478 0.58900005 1.7058397e-38
0.031974286 -0.21484478 0.58900005 1.7058397e-38
0.033096194 -0.21484478 0.58900005 1.7150593e-38
0.034218099 -0.21484478 0.58900005 1.715023e-38
0.03534 -0.21484478 0.58900005 1.7242425e-38
0.036461908 -0.21484478 0.58900005 1.7242074e-38
0.037519999 -0.21448 0.588 1.7334269e-38
0.03864 -0.21448 0.588 1.7426465e-38
0.039760001 -0.21448 0.588 1.7518661e-38
0.040879998 -0.21448 0.588 1.7427184e-38
0.041999999 -0.21448 0.588 1.7427184e-38
0.043120001 -0.21448 0.588 1.742718e-38
0.044239998 -0.21448 0.588 1.742718e-38
0.045359999 -0.21448 0.588 1.7426828e-38
0.04648 -0.21448 0.588 1.7426828e-38
0.047680955 -0.21484478 0.58900005 1.7427184e-38
0.048885714 -0.21520954 0.59000003 1.7427184e-38
0.050009526 -0.21520954 0.59000003 1.7519026e-38
0.051133335 -0.21520954 0.59000003 1.7611222e-38
0.052257147 -0.21520954 0.59000003 1.7427547e-38
0.053380955 -0.21520954 0.59000003 1.7335351e-38
0.054504763 -0.21520954 0.59000003 1.742718e-38
0.055628575 -0.21520954 0.59000003 1.7519375e-38
0.056752384 -0.21520954 0.59000003 1.7426828e-38
0.057974286 -0.21557429 0.59100002 1.7519024e-38
0.059099998 -0.21557429 0.59100002 1.7519375e-38
0.060327619 -0.21593906 0.59200001 1.7519375e-38
0.061455239 -0.21593906 0.59200001 1.751938e-38
0.062688574 -0.21630383 0.59300005 1.7611575e-38
0.063818097 -0.21630383 0.59300005 1.7519375e-38
0.064947627 -0.21630383 0.59300005 1.7519375e-38
0.066188574 -0.21666858 0.59400004 1.7426828e-38
0.067320004 -0.21666858 0.59400004 1.7426828e-38
0.068566665 -0.21703334 0.59500003 1.7334632e-38
0.069934286 -0.21776286 0.597 1.7334632e-38
0.071071431 -0.21776286 0.597 1.7334635e-38
0.072329529 -0.21812762 0.59800005 1.7150244e-38
0.073591433 -0.21849239 0.59900004 1.7241721e-38
0.074732378 -0.21849239 0.59900004 1.7333916e-38
0.076000005 -0.21885714 0.60000002 1.7150597e-38
0.077271432 -0.2192219 0.60100001 1.7242793e-38
0.078416191 -0.2192219 0.60100001 1.7150244e-38
0.07969334 -0.21958669 0.60200006 1.6965853e-38
0.080974288 -0.21995145 0.60300004 1.6504872e-38
0.082667626 -0.2214105 0.60700005 1.6504872e-38
0.084376194 -0.22286952 0.611 1.6505228e-38
0.08568 -0.2232343 0.61200005 1.6505228e-38
0.086845718 -0.2232343 0.61200005 1.6413381e-38
0.088011436 -0.2232343 0.61200005 1.5122642e-38
0.089322865 -0.22359905 0.61300004 1.4571287e-38
-0.018102858 -0.20900571 0.57600003 1.7150946e-38
-0.016976191 -0.20864287 0.57500005 1.7519029e-38
-0.015880954 -0.20864287 0.57500005 1.8440985e-38
-0.01476 -0.20828 0.574 1.8533181e-38
-0.013642858 -0.20791714 0.57300001 1.8072203e-38
-0.012551429 -0.20791714 0.57300001 1.7612643e-38
-0.01144 -0.2075543 0.57200003 1.7428252e-38
-0.010332381 -0.20719144 0.57100004 1.7703418e-38
-0.0092447624 -0.20719144 0.57100004 1.8164396e-38
-0.0081428578 -0.20682858 0.57000005 1.8809385e-38
-0.0070571434 -0.20682858 0.57000005 1.9085972e-38
-0.005960952 -0.20646571 0.56900001 1.8532083e-38
-0.0048771431 -0.20646571 0.56900001 1.4383279e-38
-0.0038000003 -0.20682858 0.57000005 1.4015946e-38
-0.0028190475 -0.21481143 0.59200001 1.4753511e-38
-0.0016914286 -0.21481143 0.59200001 1.4661667e-38
-0.00056476193 -0.2151743 0.59300005 1.4846058e-38
0.00056476193 -0.2151743 0.59300005 1.4476208e-38
0.0016942859 -0.2151743 0.59300005 1.189473e-38
0.0028285717 -0.21553715 0.59400004 1.1523792e-38
0.0039533339 -0.2151743 0.59300005 1.1708184e-38
0.0050657145 -0.21444857 0.59100002 1.1800362e-38
0.0061914288 -0.21444857 0.59100002 1.2261341e-38
0.007317143 -0.21444857 0.59100002 1.2170937e-38
0.0084285717 -0.21408571 0.59000003 1.336948e-38
0.0095523819 -0.21408571 0.59000003 1.3186181e-38
0.010676191 -0.21408571 0.59000003 1.4384724e-38
0.0118 -0.21408571 0.59000003 1.4660962e-38
0.012945714 -0.21444857 0.59100002 1.6781461e-38
0.01411905 -0.2151743 0.59300005 1.8164369e-38
0.015248572 -0.2151743 0.59300005 1.8717543e-38
0.016405717 -0.21553715 0.59400004 1.8440969e-38
0.017537145 -0.21553715 0.59400004 1.7334621e-38
0.018668571 -0.21553715 0.59400004 1.6873654e-38
0.0198 -0.21553715 0.59400004 1.6873654e-38
0.020931428 -0.21553715 0.59400004 1.67818e-38
0.022025717 -0.2151743 0.59300005 1.67818e-38
0.02311619 -0.21481143 0.59200001 1.6689615e-38
0.024243811 -0.21481143 0.59200001 1.6597419e-38
0.025371429 -0.21481143 0.59200001 1.6782166e-38
0.026454287 -0.21444857 0.59100002 1.6874362e-38
0.027533336 -0.21408571 0.59000003 1.6781459e-38
0.028657144 -0.21408571 0.59000003 1.7058045e-38
0.029780954 -0.21408571 0.59000003 1.715023e-38
0.030904762 -0.21408571 0.59000003 1.715023e-38
0.031974286 -0.21372287 0.58900005 1.7150233e-38
0.033096194 -0.21372287 0.58900005 1.7242428e-38
0.034218099 -0.21372287 0.58900005 1.7242425e-38
0.03534 -0.21372287 0.58900005 1.7242425e-38
0.036461908 -0.21372287 0.58900005 1.7150241e-38
0.037583809 -0.21372287 0.58900005 1.7150241e-38
0.03864 -0.21336 0.588 1.7426465e-38
0.039760001 -0.21336 0.588 1.7426465e-38
0.040879998 -0.21336 0.588 1.7519015e-38
0.041999999 -0.21336 0.588 1.742682e-38
0.043120001 -0.21336 0.588 1.7334621e-38
0.044239998 -0.21336 0.588 1.7426817e-38
0.045359999 -0.21336 0.588 1.7427184e-38
0.04648 -0.21336 0.588 1.7427184e-38
0.047680955 -0.21372287 0.58900005 1.7426468e-38
0.048885714 -0.21408571 0.59000003 1.7518663e-38
0.050009526 -0.21408571 0.59000003 1.7610859e-38
0.051133335 -0.21408571 0.59000003 1.7610859e-38
0.052257147 -0.21408571 0.59000003 1.7519024e-38
0.053380955 -0.21408571 0.59000003 1.7426828e-38
0.054504763 -0.21408571 0.59000003 1.7519012e-38
0.055628575 -0.21408571 0.59000003 1.7519012e-38
0.056848574 -0.21444857 0.59100002 1.751938e-38
0.057974286 -0.21444857 0.59100002 1.7427184e-38
0.059099998 -0.21444857 0.59100002 1.7334984e-38
0.060327619 -0.21481143 0.59200001 1.742718e-38
0.061559055 -0.2151743 0.59300005 1.7519375e-38
0.062688574 -0.2151743 0.59300005 1.7519375e-38
0.063925713 -0.21553715 0.59400004 1.742718e-38
0.065057144 -0.21553715 0.59400004 1.742718e-38
0.066188574 -0.21553715 0.59400004 1.7334988e-38
0.067433335 -0.2159 0.59500003 1.7334988e-38
0.068681911 -0.21626286 0.59600002 1.7334635e-38
0.069934286 -0.21662571 0.597 1.7334635e-38
0.071190484 -0.21698858 0.59800005 1.7334272e-38
0.072329529 -0.21698858 0.59800005 1.7242077e-38
0.073591433 -0.21735144 0.59900004 1.7149881e-38
0.074732378 -0.21735144 0.59900004 1.7242077e-38
0.076126665 -0.21807714 0.60100001 1.7150233e-38
0.077271432 -0.21807714 0.60100001 1.7150233e-38
0.078546673 -0.21844001 0.60200006 1.715023e-38
0.07969334 -0.21844001 0.60200006 1.7058034e-38
0.081377141 -0.21989143 0.60600001 1.6504872e-38
0.083076194 -0.22134286 0.61000001 1.6412676e-38
0.084376194 -0.2217057 0.611 1.6229006e-38
0.085820004 -0.22243144 0.61300004 1.6321202e-38
0.086987622 -0.22243144 0.61300004 1.6229355e-38
0.08815524 -0.22243144 0.61300004 1.5030812e-38
0.089322865 -0.22243144 0.61300004 1.4663849e-38
-0.019266667 -0.20863047 0.57800001 1.871899e-38
-0.018102858 -0.20790859 0.57600003 1.6967274e-38
-0.016976191 -0.20754763 0.57500005 1.6782175e-38
-0.015880954 -0.20754763 0.57500005 1.7243153e-38
-0.01476 -0.20718667 0.574 1.7059127e-38
-0.013642858 -0.20682572 0.57300001 1.7059127e-38
-0.012551429 -0.20682572 0.57300001 1.7335348e-38
-0.01144 -0.20646477 0.57200003 1.7243153e-38
-0.010332381 -0.20610382 0.57100004 1.7150949e-38
-0.0092447624 -0.20610382 0.57100004 1.8072905e-38
-0.0081428578 -0.20574287 0.57000005 1.8994145e-38
-0.0070571434 -0.20574287 0.57000005 1.8994145e-38
-0.0059714289 -0.20574287 0.57000005 1.7703757e-38
-0.004885715 -0.20574287 0.57000005 1.4015932e-38
-0.0038000003 -0.20574287 0.57000005 1.3923386e-38
-0.0028190475 -0.2136838 0.59200001 1.4660951e-38
-0.0016914286 -0.2136838 0.59200001 1.4753141e-38
-0.00058285717 -0.22090286 0.61200005 1.4937532e-38
0.00056571432 -0.21440573 0.59400004 1.4292532e-38
0.001697143 -0.21440573 0.59400004 1.2079837e-38
0.0028285717 -0.21440573 0.59400004 1.1524866e-38
0.0039600004 -0.21440573 0.59400004 1.1617061e-38
0.0050828573 -0.21404478 0.59300005 1.1800362e-38
0.0062019047 -0.2136838 0.59200001 1.2261341e-38
0.007329524 -0.2136838 0.59200001 1.2263133e-38
0.0084285717 -0.21296191 0.59000003 1.3461676e-38
0.0095523819 -0.21296191 0.59000003 1.3646084e-38
0.010694286 -0.21332286 0.59100002 1.4475845e-38
0.01184 -0.2136838 0.59200001 1.4568769e-38
0.012967619 -0.2136838 0.59200001 1.6781464e-38
0.01411905 -0.21404478 0.59300005 1.7610496e-38
0.015248572 -0.21404478 0.59300005 1.8532452e-38
0.016405717 -0.21440573 0.59400004 1.844025e-38
0.017537145 -0.21440573 0.59400004 1.7426098e-38
0.018668571 -0.21440573 0.59400004 1.6781459e-38
0.0198 -0.21440573 0.59400004 1.6689263e-38
0.020931428 -0.21440573 0.59400004 1.678145e-38
0.022025717 -0.21404478 0.59300005 1.678145e-38
0.02311619 -0.2136838 0.59200001 1.6689263e-38
0.024243811 -0.2136838 0.59200001 1.6689263e-38
0.025371429 -0.2136838 0.59200001 1.6689619e-38
0.026454287 -0.21332286 0.59100002 1.6781814e-38
0.02758 -0.21332286 0.59100002 1.6505228e-38
0.028657144 -0.21296191 0.59000003 1.687401e-38
0.029780954 -0.21296191 0.59000003 1.7058037e-38
0.030904762 -0.21296191 0.59000003 1.7150233e-38
0.031974286 -0.21260096 0.58900005 1.6966206e-38
0.033096194 -0.21260096 0.58900005 1.6966206e-38
0.034218099 -0.21260096 0.58900005 1.7058401e-38
0.03534 -0.21260096 0.58900005 1.7150597e-38
0.036523812 -0.21296191 0.59000003 1.7241721e-38
0.037583809 -0.21260096 0.58900005 1.7333916e-38
0.038705718 -0.21260096 0.58900005 1.7426465e-38
0.039827622 -0.21260096 0.58900005 1.7518661e-38
0.040949523 -0.21260096 0.58900005 1.751938e-38
0.042071432 -0.21260096 0.58900005 1.7427184e-38
0.043193337 -0.21260096 0.58900005 1.7519015e-38
0.044315241 -0.21260096 0.58900005 1.742682e-38
0.045437146 -0.21260096 0.58900005 1.7518661e-38
0.046559051 -0.21260096 0.58900005 1.7426465e-38
0.047680955 -0.21260096 0.58900005 1.7426465e-38
0.048885714 -0.21296191 0.59000003 1.7703052e-38
0.050009526 -0.21296191 0.59000003 1.7887443e-38
0.05122 -0.21332286 0.59100002 1.7610856e-38
0.052345715 -0.21332286 0.59100002 1.7702336e-38
0.053471427 -0.21332286 0.59100002 1.761014e-38
0.054597147 -0.21332286 0.59100002 1.7518661e-38
0.055722859 -0.21332286 0.59100002 1.7703052e-38
0.056944761 -0.2136838 0.59200001 1.7611575e-38
0.058072381 -0.2136838 0.59200001 1.751938e-38
0.0592 -0.2136838 0.59200001 1.7519375e-38
0.060429528 -0.21404478 0.59300005 1.7519375e-38
0.061559055 -0.21404478 0.59300005 1.751938e-38
0.062688574 -0.21404478 0.59300005 1.7427184e-38
0.063925713 -0.21440573 0.59400004 1.7242793e-38
0.065057144 -0.21440573 0.59400004 1.7334988e-38
0.066300005 -0.21476667 0.59500003 1.7334988e-38
0.067546666 -0.21512762 0.59600002 1.7242793e-38
0.068681911 -0.21512762 0.59600002 1.7334632e-38
0.069934286 -0.21548857 0.597 1.7334632e-38
0.071190484 -0.21584953 0.59800005 1.7334632e-38
0.072450481 -0.21621048 0.59900004 1.7334632e-38
0.073591433 -0.21621048 0.59900004 1.7150241e-38
0.074857146 -0.21657144 0.60000002 1.7150241e-38
0.076126665 -0.21693239 0.60100001 1.7149878e-38
0.077271432 -0.21693239 0.60100001 1.7057683e-38
0.078546673 -0.21729335 0.60200006 1.7057683e-38
0.07969334 -0.21729335 0.60200006 1.6965487e-38
0.081377141 -0.21873714 0.60600001 1.6781459e-38
0.083076194 -0.22018096 0.61000001 1.6597067e-38
0.084376194 -0.22054191 0.611 1.6229006e-38
0.085820004 -0.22126381 0.61300004 1.6321202e-38
0.086987622 -0.22126381 0.61300004 1.6136805e-38
0.08815524 -0.22126381 0.61300004 1.4938262e-38
0.089322865 -0.22126381 0.61300004 1.5123382e-38
-0.020367619 -0.20752953 0.57800001 1.9548035e-38
-0.019233335 -0.20717049 0.57700002 1.8626429e-38
-0.018102858 -0.20681143 0.57600003 1.6690321e-38
-0.016976191 -0.2064524 0.57500005 1.6505577e-38
-0.015880954 -0.2064524 0.57500005 1.6689968e-38
-0.014785715 -0.2064524 0.57500005 1.6689968e-38
-0.013642858 -0.2057343 0.57300001 1.6874359e-38
-0.012551429 -0.2057343 0.57300001 1.6965502e-38
-0.01144 -0.20537525 0.57200003 1.6688915e-38
-0.010332381 -0.2050162 0.57100004 1.678145e-38
-0.0092447624 -0.2050162 0.57100004 1.7703406e-38
-0.0081428578 -0.20465715 0.57000005 1.8347352e-38
-0.0070571434 -0.20465715 0.57000005 1.8255157e-38
-0.0059714289 -0.20465715 0.57000005 1.7702643e-38
-0.004885715 -0.20465715 0.57000005 1.43836e-38
-0.0038000003 -0.20465715 0.57000005 1.4015941e-38
-0.0028238096 -0.21291526 0.59300005 1.447692e-38
-0.0016942859 -0.21291526 0.59300005 1.4476554e-38
-0.00058190478 -0.2193781 0.611 1.4384358e-38
0.00056571432 -0.2132743 0.59400004 1.419997e-38
0.001697143 -0.2132743 0.59400004 1.2540448e-38
0.0028333333 -0.21363334 0.59500003 1.170926e-38
0.0039666668 -0.21363334 0.59500003 1.1801455e-38
0.0050914288 -0.2132743 0.59400004 1.1892575e-38
0.0062123816 -0.21291526 0.59300005 1.2445749e-38
0.007341905 -0.21291526 0.59300005 1.2355328e-38
0.0084571429 -0.2125562 0.59200001 1.3553872e-38
0.0095847622 -0.2125562 0.59200001 1.3462416e-38
0.010712381 -0.2125562 0.59200001 1.4199981e-38
0.01184 -0.2125562 0.59200001 1.4660965e-38
0.012967619 -0.2125562 0.59200001 1.6965855e-38
0.01411905 -0.21291526 0.59300005 1.7610492e-38
0.015248572 -0.21291526 0.59300005 1.807147e-38
0.016405717 -0.2132743 0.59400004 1.7979981e-38
0.017537145 -0.2132743 0.59400004 1.7242416e-38
0.018668571 -0.2132743 0.59400004 1.6781461e-38
0.0198 -0.2132743 0.59400004 1.6781461e-38
0.020931428 -0.2132743 0.59400004 1.6689619e-38
0.022025717 -0.21291526 0.59300005 1.6689619e-38
0.023155238 -0.21291526 0.59300005 1.6689269e-38
0.024243811 -0.2125562 0.59200001 1.6689269e-38
0.025371429 -0.2125562 0.59200001 1.6689263e-38
0.026454287 -0.21219714 0.59100002 1.7058045e-38
0.02758 -0.21219714 0.59100002 1.6781459e-38
0.028705714 -0.21219714 0.59100002 1.6781459e-38
0.02983143 -0.21219714 0.59100002 1.7058037e-38
0.030904762 -0.2118381 0.59000003 1.7058037e-38
0.032028571 -0.2118381 0.59000003 1.7057683e-38
0.033152383 -0.2118381 0.59000003 1.6965487e-38
0.034276191 -0.2118381 0.59000003 1.6873657e-38
0.035400003 -0.2118381 0.59000003 1.7150244e-38
0.036523812 -0.2118381 0.59000003 1.7242442e-38
0.037583809 -0.21147907 0.58900005 1.7242442e-38
0.038705718 -0.21147907 0.58900005 1.7426465e-38
0.039827622 -0.21147907 0.58900005 1.7518661e-38
0.040949523 -0.21147907 0.58900005 1.7703415e-38
0.042071432 -0.21147907 0.58900005 1.7519024e-38
0.043193337 -0.21147907 0.58900005 1.7334988e-38
0.044315241 -0.21147907 0.58900005 1.7334988e-38
0.045437146 -0.21147907 0.58900005 1.742682e-38
0.046559051 -0.21147907 0.58900005 1.742682e-38
0.047761906 -0.2118381 0.59000003 1.7334624e-38
0.048885714 -0.2118381 0.59000003 1.7611211e-38
0.050009526 -0.2118381 0.59000003 1.7795602e-38
0.05122 -0.21219714 0.59100002 1.7519015e-38
0.052345715 -0.21219714 0.59100002 1.7519026e-38
0.053471427 -0.21219714 0.59100002 1.7519026e-38
0.054597147 -0.21219714 0.59100002 1.7518663e-38
0.055722859 -0.21219714 0.59100002 1.7610859e-38
0.056944761 -0.2125562 0.59200001 1.7610859e-38
0.058072381 -0.2125562 0.59200001 1.7610859e-38
0.0592 -0.2125562 0.59200001 1.7519375e-38
0.060429528 -0.21291526 0.59300005 1.7795962e-38
0.061559055 -0.21291526 0.59300005 1.7611571e-38
0.06279429 -0.2132743 0.59400004 1.742718e-38
0.063925713 -0.2132743 0.59400004 1.7427184e-38
0.065057144 -0.2132743 0.59400004 1.7427184e-38
0.066300005 -0.21363334 0.59500003 1.7334988e-38
0.067546666 -0.21399239 0.59600002 1.7334988e-38
0.068797141 -0.21435143 0.597 1.7334632e-38
0.070051439 -0.21471049 0.59800005 1.7242437e-38
0.071190484 -0.21471049 0.59800005 1.7334272e-38
0.072450481 -0.21506953 0.59900004 1.7334272e-38
0.073714286 -0.21542858 0.60000002 1.7150244e-38
0.074981906 -0.21578763 0.60100001 1.7150244e-38
0.07625334 -0.21614669 0.60200006 1.7058401e-38
0.077400006 -0.21614669 0.60200006 1.7058401e-38
0.078546673 -0.21614669 0.60200006 1.7058037e-38
0.079825722 -0.21650574 0.60300004 1.6873646e-38
0.08151143 -0.21794192 0.60700005 1.6689263e-38
0.083076194 -0.21901904 0.61000001 1.6689263e-38
0.084376194 -0.2193781 0.611 1.6412682e-38
0.085820004 -0.2200962 0.61300004 1.6412682e-38
0.086987622 -0.2200962 0.61300004 1.6229001e-38
0.08815524 -0.2200962 0.61300004 1.4753871e-38
-0.020367619 -0.20642857 0.57800001 1.9271445e-38
-0.019233335 -0.20607144 0.57700002 1.7888877e-38
-0.018102858 -0.2057143 0.57600003 1.6044964e-38
-0.016976191 -0.20535715 0.57500005 1.6412299e-38
-0.015880954 -0.20535715 0.57500005 1.6688886e-38
-0.01476 -0.205 0.574 1.6596693e-38
-0.013642858 -0.20464286 0.57300001 1.6688889e-38
-0.012551429 -0.20464286 0.57300001 1.6688536e-38
-0.01144 -0.20428573 0.57200003 1.6688536e-38
-0.010332381 -0.20392859 0.57100004 1.6780728e-38
-0.0092447624 -0.20392859 0.57100004 1.7610489e-38
-0.0081571434 -0.20392859 0.57100004 1.7795616e-38
-0.0070571434 -0.20357144 0.57000005 1.7795616e-38
-0.0059714289 -0.20357144 0.57000005 1.6321185e-38
-0.004885715 -0.20357144 0.57000005 1.3924099e-38
-0.0040666666 -0.21785714 0.61000001 1.3923746e-38
-0.002904762 -0.21785714 0.61000001 1.4384724e-38
-0.0017457142 -0.21821429 0.611 1.4200686e-38
-0.00058190478 -0.21821429 0.611 1.4016295e-38
0.00058190478 -0.21821429 0.611 1.3831187e-38
0.0017 -0.21250001 0.59500003 1.2632644e-38
0.0028333333 -0.21250001 0.59500003 1.2261352e-38
0.0039733332 -0.21285714 0.59600002 1.1984765e-38
0.0051000006 -0.21250001 0.59500003 1.1983686e-38
0.0062333331 -0.21250001 0.59500003 1.2721251e-38
0.007341905 -0.21178573 0.59300005 1.2723388e-38
0.0084714293 -0.21178573 0.59300005 1.3829735e-38
0.0095847622 -0.21142857 0.59200001 1.3554614e-38
0.010712381 -0.21142857 0.59200001 1.4199984e-38
0.01184 -0.21142857 0.59200001 1.5027947e-38
0.012989525 -0.21178573 0.59300005 1.705625e-38
0.01411905 -0.21178573 0.59300005 1.6965853e-38
0.015274287 -0.21214287 0.59400004 1.7519026e-38
0.016433334 -0.21250001 0.59500003 1.7519728e-38
0.017566668 -0.21250001 0.59500003 1.6966555e-38
0.0187 -0.21250001 0.59500003 1.6689266e-38
0.019833334 -0.21250001 0.59500003 1.6689266e-38
0.020931428 -0.21214287 0.59400004 1.6597775e-38
0.022025717 -0.21178573 0.59300005 1.6597775e-38
0.023155238 -0.21178573 0.59300005 1.6689263e-38
0.024284763 -0.21178573 0.59300005 1.6689263e-38
0.025371429 -0.21142857 0.59200001 1.6597423e-38
0.026499048 -0.21142857 0.59200001 1.6781814e-38
0.027626665 -0.21142857 0.59200001 1.6873643e-38
0.028705714 -0.21107145 0.59100002 1.6965839e-38
0.02983143 -0.21107145 0.59100002 1.6965841e-38
0.030957144 -0.21107145 0.59100002 1.7058037e-38
0.032028571 -0.2107143 0.59000003 1.7057683e-38
0.033152383 -0.2107143 0.59000003 1.7057683e-38
0.034276191 -0.2107143 0.59000003 1.7058037e-38
0.035460003 -0.21107145 0.59100002 1.7242428e-38
0.036585715 -0.21107145 0.59100002 1.7242793e-38
0.03764762 -0.2107143 0.59000003 1.7150597e-38
0.038771432 -0.2107143 0.59000003 1.7334624e-38
0.03989524 -0.2107143 0.59000003 1.7519015e-38
0.041019052 -0.2107143 0.59000003 1.751938e-38
0.042142861 -0.2107143 0.59000003 1.751938e-38
0.043266669 -0.2107143 0.59000003 1.7334988e-38
0.044390481 -0.2107143 0.59000003 1.7334988e-38
0.045514286 -0.2107143 0.59000003 1.742718e-38
0.046638098 -0.2107143 0.59000003 1.7334984e-38
0.047842856 -0.21107145 0.59100002 1.7149878e-38
0.048968576 -0.21107145 0.59100002 1.7518661e-38
0.050094288 -0.21107145 0.59100002 1.751938e-38
0.05122 -0.21107145 0.59100002 1.7427184e-38
0.052434284 -0.21142857 0.59200001 1.7519024e-38
0.053471427 -0.21107145 0.59100002 1.7519024e-38
0.054597147 -0.21107145 0.59100002 1.7610503e-38
0.055817142 -0.21142857 0.59200001 1.7702699e-38
0.056944761 -0.21142857 0.59200001 1.7610859e-38
0.058072381 -0.21142857 0.59200001 1.7610859e-38
0.0592 -0.21142857 0.59200001 1.7427184e-38
0.060429528 -0.21178573 0.59300005 1.751938e-38
0.06166286 -0.21214287 0.59400004 1.751938e-38
0.06279429 -0.21214287 0.59400004 1.7427184e-38
0.064033337 -0.21250001 0.59500003 1.7426828e-38
0.065166667 -0.21250001 0.59500003 1.7426828e-38
0.066300005 -0.21250001 0.59500003 1.7243507e-38
0.067659996 -0.21321428 0.597 1.7243507e-38
0.068797141 -0.21321428 0.597 1.7519024e-38
0.070051439 -0.21357144 0.59800005 1.7519024e-38
0.071190484 -0.21357144 0.59800005 1.7334272e-38
0.072450481 -0.21392858 0.59900004 1.7334272e-38
0.073837139 -0.21464285 0.60100001 1.724244e-38
0.074981906 -0.21464285 0.60100001 1.7150244e-38
0.07625334 -0.21500002 0.60200006 1.7058401e-38
0.077528574 -0.21535715 0.60300004 1.7058401e-38
0.078677148 -0.21535715 0.60300004 1.6966206e-38
0.079825722 -0.21535715 0.60300004 1.687401e-38
0.08164572 -0.21714287 0.60800004 1.6689263e-38
0.083212383 -0.21821429 0.611 1.6689263e-38
0.084376194 -0.21821429 0.611 1.6504877e-38
0.085820004 -0.21892859 0.61300004 1.6412682e-38
0.087129526 -0.21928573 0.61400002 1.6228636e-38
0.088299051 -0.21928573 0.61400002 1.4845702e-38
-0.020367619 -0.20532763 0.57800001 1.8626073e-38
-0.019233335 -0.20497239 0.57700002 1.7703767e-38
-0.018102858 -0.20461714 0.57600003 1.6044245e-38
-0.016976191 -0.20426193 0.57500005 1.6044601e-38
-0.015853332 -0.20390667 0.574 1.6321188e-38
-0.014734286 -0.20355143 0.57300001 1.6688533e-38
-0.013619049 -0.2031962 0.57200003 1.6688533e-38
-0.012529524 -0.2031962 0.57200003 1.6596693e-38
-0.011420001 -0.20284097 0.57100004 1.6688889e-38
-0.010332381 -0.20284097 0.57100004 1.6780731e-38
-0.0092447624 -0.20284097 0.57100004 1.6872927e-38
-0.0081571434 -0.20284097 0.57100004 1.7333539e-38
-0.0070571434 -0.20248573 0.57000005 1.6964757e-38
-0.0059714289 -0.20248573 0.57000005 1.6411933e-38
-0.004885715 -0.20248573 0.57000005 1.3922651e-38
-0.0040666666 -0.21669523 0.61000001 1.3831906e-38
-0.002904762 -0.21669523 0.61000001 1.4200689e-38
-0.0017457142 -0.21705048 0.611 1.4200676e-38
-0.00058190478 -0.21705048 0.611 1.3555307e-38
0.00058190478 -0.21705048 0.611 1.3738273e-38
0.0017057143 -0.21207714 0.597 1.2816316e-38
0.0028428573 -0.21207714 0.597 1.2446469e-38
0.00398 -0.21207714 0.597 1.2446469e-38
0.0051085716 -0.2117219 0.59600002 1.2539013e-38
0.0062333331 -0.21136668 0.59500003 1.3276578e-38
0.007354286 -0.21101144 0.59400004 1.3093244e-38
0.0084714293 -0.21065621 0.59300005 1.3830809e-38
0.0096009532 -0.21065621 0.59300005 1.39234e-38
0.010730477 -0.21065621 0.59300005 1.4660965e-38
0.011860001 -0.21065621 0.59300005 1.4661325e-38
0.012989525 -0.21065621 0.59300005 1.6505237e-38
0.014142858 -0.21101144 0.59400004 1.696549e-38
0.0153 -0.21136668 0.59500003 1.7610859e-38
0.016433334 -0.21136668 0.59500003 1.7610832e-38
0.017566668 -0.21136668 0.59500003 1.6873267e-38
0.0187 -0.21136668 0.59500003 1.6689263e-38
0.019833334 -0.21136668 0.59500003 1.6597067e-38
0.020966668 -0.21136668 0.59500003 1.6413378e-38
0.022062859 -0.21101144 0.59400004 1.6505574e-38
0.023155238 -0.21065621 0.59300005 1.6597419e-38
0.024284763 -0.21065621 0.59300005 1.6597419e-38
0.025371429 -0.21030095 0.59200001 1.6597419e-38
0.026499048 -0.21030095 0.59200001 1.6689615e-38
0.027626665 -0.21030095 0.59200001 1.678145e-38
0.028754286 -0.21030095 0.59200001 1.6873646e-38
0.029881904 -0.21030095 0.59200001 1.6873646e-38
0.030957144 -0.20994572 0.59100002 1.6965841e-38
0.032082856 -0.20994572 0.59100002 1.7057322e-38
0.033208571 -0.20994572 0.59100002 1.7149518e-38
0.034334287 -0.20994572 0.59100002 1.6965839e-38
0.035460003 -0.20994572 0.59100002 1.7334621e-38
0.036585715 -0.20994572 0.59100002 1.7243144e-38
0.03764762 -0.20959048 0.59000003 1.7243144e-38
0.038771432 -0.20959048 0.59000003 1.7334621e-38
0.039962858 -0.20994572 0.59100002 1.7426817e-38
0.041088574 -0.20994572 0.59100002 1.7334988e-38
0.042214286 -0.20994572 0.59100002 1.7427184e-38
0.043340001 -0.20994572 0.59100002 1.742718e-38
0.044465717 -0.20994572 0.59100002 1.742718e-38
0.045591429 -0.20994572 0.59100002 1.742718e-38
0.046717145 -0.20994572 0.59100002 1.7334984e-38
0.047842856 -0.20994572 0.59100002 1.7519015e-38
0.04905143 -0.21030095 0.59200001 1.7519015e-38
0.050179046 -0.21030095 0.59200001 1.7518661e-38
0.051306669 -0.21030095 0.59200001 1.7518661e-38
0.052434284 -0.21030095 0.59200001 1.7426828e-38
0.053561907 -0.21030095 0.59200001 1.7519024e-38
0.054689523 -0.21030095 0.59200001 1.7702702e-38
0.055817142 -0.21030095 0.59200001 1.7610506e-38
0.056944761 -0.21030095 0.59200001 1.7519024e-38
0.058072381 -0.21030095 0.59200001 1.7519024e-38
0.0592 -0.21030095 0.59200001 1.7519375e-38
0.060429528 -0.21065621 0.59300005 1.742718e-38
0.06166286 -0.21101144 0.59400004 1.7426828e-38
0.06279429 -0.21101144 0.59400004 1.7426828e-38
0.064033337 -0.21136668 0.59500003 1.7519026e-38
0.065276191 -0.2117219 0.59600002 1.7426831e-38
0.066411428 -0.2117219 0.59600002 1.7243144e-38
0.067773335 -0.2124324 0.59800005 1.733534e-38
0.068912387 -0.2124324 0.59800005 1.7426834e-38
0.07016857 -0.21278763 0.59900004 1.7334638e-38
0.071428567 -0.21314286 0.60000002 1.7242437e-38
0.072571434 -0.21314286 0.60000002 1.7242437e-38
0.073837139 -0.2134981 0.60100001 1.7334282e-38
0.074981906 -0.2134981 0.60100001 1.7149891e-38
0.07625334 -0.21385334 0.60200006 1.7058048e-38
0.077528574 -0.21420859 0.60300004 1.7058048e-38
0.078677148 -0.21420859 0.60300004 1.6966206e-38
0.079958096 -0.21456382 0.60400003 1.687401e-38
0.081780002 -0.21634001 0.60900003 1.6689269e-38
0.083484761 -0.21776097 0.61300004 1.6689269e-38
0.084652379 -0.21776097 0.61300004 1.6504884e-38
0.085960001 -0.21811619 0.61400002 1.6320493e-38
0.08727143 -0.21847144 0.61500001 1.5676542e-38
0.088442855 -0.21847144 0.61500001 1.4385803e-38
0.089760005 -0.21882668 0.61600006 1.5400322e-38
-0.020332381 -0.20387334 0.57700002 1.8349486e-38
-0.019233335 -0.20387334 0.57700002 1.7519375e-38
-0.018102858 -0.20352001 0.57600003 1.5491071e-38
-0.016976191 -0.20316668 0.57500005 1.5582907e-38
-0.015853332 -0.20281333 0.574 1.6043885e-38
-0.014734286 -0.20246001 0.57300001 1.6504144e-38
-0.013619049 -0.20210667 0.57200003 1.6411949e-38
-0.012529524 -0.20210667 0.57200003 1.6228274e-38
-0.011420001 -0.20175335 0.57100004 1.6320469e-38
-0.010332381 -0.20175335 0.57100004 1.6228285e-38
-0.0092447624 -0.20175335 0.57100004 1.7058045e-38
-0.0081571434 -0.20175335 0.57100004 1.7426468e-38
-0.0070695239 -0.20175335 0.57100004 1.6781098e-38
-0.0059819054 -0.20175335 0.57100004 1.5490711e-38
-0.0048942859 -0.20175335 0.57100004 1.383119e-38
-0.0038066669 -0.20175335 0.57100004 1.3923386e-38
-0.0029095239 -0.21588667 0.611 1.4199973e-38
-0.0017457142 -0.21588667 0.611 1.392338e-38
-0.00058285717 -0.21624002 0.61200005 1.3554597e-38
0.00058285717 -0.21624002 0.61200005 1.3738273e-38
0.0017085716 -0.21129335 0.59800005 1.2908512e-38
0.0028476194 -0.21129335 0.59800005 1.2631216e-38
0.00398 -0.21094 0.597 1.253902e-38
0.0051085716 -0.21058668 0.59600002 1.2448256e-38
0.0062438096 -0.21058668 0.59600002 1.3093625e-38
0.007366667 -0.21023335 0.59500003 1.3002127e-38
0.0084857149 -0.20988001 0.59400004 1.3831888e-38
0.0096171433 -0.20988001 0.59400004 1.392376e-38
0.010748573 -0.20988001 0.59400004 1.4569129e-38
0.011880001 -0.20988001 0.59400004 1.4569845e-38
0.013011429 -0.20988001 0.59400004 1.6321562e-38
0.014166667 -0.21023335 0.59500003 1.6781098e-38
0.0153 -0.21023335 0.59500003 1.7242077e-38
0.016460953 -0.21058668 0.59600002 1.7149148e-38
0.017596191 -0.21058668 0.59600002 1.6872561e-38
0.01873143 -0.21058668 0.59600002 1.6597067e-38
0.019866668 -0.21058668 0.59600002 1.6597067e-38
0.020966668 -0.21023335 0.59500003 1.6321904e-38
0.022062859 -0.20988001 0.59400004 1.64141e-38
0.023194287 -0.20988001 0.59400004 1.6597419e-38
0.024325715 -0.20988001 0.59400004 1.6597419e-38
0.025414288 -0.20952669 0.59300005 1.6597419e-38
0.026543811 -0.20952669 0.59300005 1.6689615e-38
0.027673336 -0.20952669 0.59300005 1.6781447e-38
0.028802859 -0.20952669 0.59300005 1.6873643e-38
0.029881904 -0.20917334 0.59200001 1.696512e-38
0.031009525 -0.20917334 0.59200001 1.696512e-38
0.032082856 -0.20882 0.59100002 1.7057322e-38
0.033208571 -0.20882 0.59100002 1.7149518e-38
0.034392379 -0.20917334 0.59200001 1.7058037e-38
0.035520002 -0.20917334 0.59200001 1.7334624e-38
0.036647618 -0.20917334 0.59200001 1.7242788e-38
0.03764762 -0.20846668 0.59000003 1.7334984e-38
0.038771432 -0.20846668 0.59000003 1.7426817e-38
0.040030476 -0.20917334 0.59200001 1.7519012e-38
0.041088574 -0.20882 0.59100002 1.7427184e-38
0.042214286 -0.20882 0.59100002 1.7427184e-38
0.043340001 -0.20882 0.59100002 1.7519375e-38
0.044465717 -0.20882 0.59100002 1.742718e-38
0.045591429 -0.20882 0.59100002 1.7334984e-38
0.046796191 -0.20917334 0.59200001 1.742718e-38
0.047923807 -0.20917334 0.59200001 1.7519015e-38
0.04905143 -0.20917334 0.59200001 1.7519015e-38
0.050179046 -0.20917334 0.59200001 1.742682e-38
0.051306669 -0.20917334 0.59200001 1.7519015e-38
0.052434284 -0.20917334 0.59200001 1.7518663e-38
0.053561907 -0.20917334 0.59200001 1.7610859e-38
0.054689523 -0.20917334 0.59200001 1.7519026e-38
0.055817142 -0.20917334 0.59200001 1.7519026e-38
0.056944761 -0.20917334 0.59200001 1.7519024e-38
0.058170483 -0.20952669 0.59300005 1.7519024e-38
0.059300005 -0.20952669 0.59300005 1.742718e-38
0.060531434 -0.20988001 0.59400004 1.7519375e-38
0.06166286 -0.20988001 0.59400004 1.7426828e-38
0.062900007 -0.21023335 0.59500003 1.7426828e-38
0.064033337 -0.21023335 0.59500003 1.7426828e-38
0.065385714 -0.21094 0.597 1.7426828e-38
0.066522859 -0.21094 0.597 1.733534e-38
0.067773335 -0.21129335 0.59800005 1.7427536e-38
0.068912387 -0.21129335 0.59800005 1.7426828e-38
0.07016857 -0.21164668 0.59900004 1.7334632e-38
0.071428567 -0.212 0.60000002 1.7242437e-38
0.072571434 -0.212 0.60000002 1.7150241e-38
0.073837139 -0.21235333 0.60100001 1.7150244e-38
0.075106673 -0.21270669 0.60200006 1.7058048e-38
0.076380007 -0.21306001 0.60300004 1.7058401e-38
0.077657141 -0.21341334 0.60400003 1.7058401e-38
0.078807622 -0.21341334 0.60400003 1.6966206e-38
0.08022286 -0.21412 0.60600001 1.687401e-38
0.081780002 -0.21518001 0.60900003 1.6781459e-38
0.08334858 -0.21624002 0.61200005 1.6689263e-38
0.08451429 -0.21624002 0.61200005 1.6321209e-38
0.085820004 -0.21659335 0.61300004 1.6136818e-38
0.08727143 -0.21730001 0.61500001 1.5584339e-38
0.088586673 -0.21765335 0.61600006 1.4477992e-38
0.089760005 -0.21765335 0.61600006 1.5768744e-38
-0.020332381 -0.20277429 0.57700002 1.8440966e-38
-0.019233335 -0.20277429 0.57700002 1.7150244e-38
-0.018102858 -0.20242286 0.57600003 1.5490723e-38
-0.016976191 -0.20207144 0.57500005 1.5398527e-38
-0.015880954 -0.20207144 0.57500005 1.5767309e-38
-0.01476 -0.20172 0.574 1.5858786e-38
-0.013642858 -0.20136859 0.57300001 1.6043177e-38
-0.012529524 -0.20101714 0.57200003 1.613501e-38
-0.011420001 -0.20066573 0.57100004 1.6319401e-38
-0.010332381 -0.20066573 0.57100004 1.6504149e-38
-0.0092447624 -0.20066573 0.57100004 1.7426105e-38
-0.0081571434 -0.20066573 0.57100004 1.7610126e-38
-0.0070695239 -0.20066573 0.57100004 1.668817e-38
-0.0059819054 -0.20066573 0.57100004 1.5582185e-38
-0.0048942859 -0.20066573 0.57100004 1.401486e-38
-0.0038066669 -0.20066573 0.57100004 1.392375e-38
-0.0029095239 -0.21472286 0.611 1.4015946e-38
-0.0017457142 -0.21472286 0.611 1.401486e-38
-0.00058285717 -0.2150743 0.61200005 1.3553881e-38
0.00058285717 -0.2150743 0.61200005 1.35546e-38
0.0017142858 -0.21085715 0.60000002 1.3185818e-38
0.0028571428 -0.21085715 0.60000002 1.2631939e-38
0.00398 -0.20980285 0.597 1.2539744e-38
0.005117143 -0.20980285 0.597 1.2632295e-38
0.0062438096 -0.20945144 0.59600002 1.336986e-38
0.0073790476 -0.20945144 0.59600002 1.3554225e-38
0.0085000005 -0.20910001 0.59500003 1.4199594e-38
0.0096333344 -0.20910001 0.59500003 1.4015595e-38
0.010766666 -0.20910001 0.59500003 1.4845356e-38
0.0119 -0.20910001 0.59500003 1.4938265e-38
0.013033333 -0.20910001 0.59500003 1.6505591e-38
0.014190476 -0.20945144 0.59600002 1.6872575e-38
0.015325715 -0.20945144 0.59600002 1.7241358e-38
0.016460953 -0.20945144 0.59600002 1.7057308e-38
0.017625714 -0.20980285 0.597 1.6688526e-38
0.01873143 -0.20945144 0.59600002 1.6504872e-38
0.019866668 -0.20945144 0.59600002 1.6504872e-38
0.021001905 -0.20945144 0.59600002 1.6505223e-38
0.022137145 -0.20945144 0.59600002 1.6505223e-38
0.023233334 -0.20910001 0.59500003 1.6505223e-38
0.024325715 -0.20874859 0.59400004 1.6505223e-38
0.025457144 -0.20874859 0.59400004 1.6413028e-38
0.026543811 -0.20839715 0.59300005 1.6597419e-38
0.027673336 -0.20839715 0.59300005 1.6597419e-38
0.028802859 -0.20839715 0.59300005 1.6689615e-38
0.029932383 -0.20839715 0.59300005 1.678145e-38
0.031009525 -0.20804571 0.59200001 1.6873646e-38
0.032137141 -0.20804571 0.59200001 1.6965487e-38
0.033264764 -0.20804571 0.59200001 1.7242074e-38
0.034392379 -0.20804571 0.59200001 1.7242428e-38
0.035520002 -0.20804571 0.59200001 1.7242428e-38
0.036647618 -0.20804571 0.59200001 1.7334624e-38
0.037711427 -0.20769429 0.59100002 1.7334624e-38
0.038837146 -0.20769429 0.59100002 1.7334269e-38
0.040030476 -0.20804571 0.59200001 1.7610856e-38
0.041158095 -0.20804571 0.59200001 1.7519731e-38
0.042285714 -0.20804571 0.59200001 1.7427536e-38
0.043413334 -0.20804571 0.59200001 1.7427184e-38
0.044540953 -0.20804571 0.59200001 1.7427184e-38
0.045668572 -0.20804571 0.59200001 1.7242788e-38
0.046796191 -0.20804571 0.59200001 1.742718e-38
0.047923807 -0.20804571 0.59200001 1.7427184e-38
0.049134288 -0.20839715 0.59300005 1.7427184e-38
0.050263815 -0.20839715 0.59300005 1.742682e-38
0.051393338 -0.20839715 0.59300005 1.7519015e-38
0.05252286 -0.20839715 0.59300005 1.7518663e-38
0.053652387 -0.20839715 0.59300005 1.7610859e-38
0.054781906 -0.20839715 0.59300005 1.7610859e-38
0.055911433 -0.20839715 0.59300005 1.7610859e-38
0.057040956 -0.20839715 0.59300005 1.7610859e-38
0.058170483 -0.20839715 0.59300005 1.7518663e-38
0.059300005 -0.20839715 0.59300005 1.7427536e-38
0.060531434 -0.20874859 0.59400004 1.7427536e-38
0.06166286 -0.20874859 0.59400004 1.7334988e-38
0.062900007 -0.20910001 0.59500003 1.7427184e-38
0.064033337 -0.20910001 0.59500003 1.7427184e-38
0.065385714 -0.20980285 0.597 1.7427184e-38
0.066522859 -0.20980285 0.597 1.742718e-38
0.067773335 -0.21015429 0.59800005 1.742718e-38
0.068912387 -0.21015429 0.59800005 1.742718e-38
0.070285715 -0.21085715 0.60000002 1.7242788e-38
0.071428567 -0.21085715 0.60000002 1.7242793e-38
0.072692387 -0.21120857 0.60100001 1.7150597e-38
0.073960006 -0.21156001 0.60200006 1.7150597e-38
0.075231433 -0.21191144 0.60300004 1.7058401e-38
0.076506667 -0.21226287 0.60400003 1.7150949e-38
0.077657141 -0.21226287 0.60400003 1.6966557e-38
0.079068571 -0.21296571 0.60600001 1.6965841e-38
0.080355242 -0.21331716 0.60700005 1.6873646e-38
0.08164572 -0.21366858 0.60800004 1.6781814e-38
0.083212383 -0.21472286 0.611 1.6689619e-38
0.084376194 -0.21472286 0.611 1.6781459e-38
0.085820004 -0.21542571 0.61300004 1.6228285e-38
0.087413341 -0.21648002 0.61600006 1.5124087e-38
0.088586673 -0.21648002 0.61600006 1.4294326e-38
0.090051427 -0.21718286 0.61800003 1.5677988e-38
-0.020332381 -0.20167524 0.57700002 1.8164735e-38
-0.019233335 -0.20167524 0.57700002 1.687401e-38
-0.018102858 -0.20132573 0.57600003 1.5306684e-38
-0.017005716 -0.20132573 0.57600003 1.5398516e-38
-0.015880954 -0.20097621 0.57500005 1.5675103e-38
-0.01476 -0.20062667 0.574 1.5675103e-38
-0.013642858 -0.20027713 0.57300001 1.5675103e-38
-0.012551429 -0.20027713 0.57300001 1.6135359e-38
-0.01144 -0.19992763 0.57200003 1.6135359e-38
-0.010350476 -0.19992763 0.57200003 1.6227557e-38
-0.0092609534 -0.19992763 0.57200003 1.7333905e-38
-0.008171428 -0.19992763 0.57200003 1.7793815e-38
