# .PCD v0.7 - Point Cloud Data file format
VERSION 0.7
FIELDS x y z rgb
SIZE 4 4 4 4
TYPE F F F F
COUNT 1 1 1 1
WIDTH 988
HEIGHT 1
VIEWPOINT 0 0 0 1 0 0 0
POINTS 988
DATA ascii
0.08194381 -0.19749048 0.61900002 1.5951335e-38
0.083257139 -0.19780952 0.62 1.5030797e-38
0.084574297 -0.19812858 0.62100005 1.5122992e-38
-0.035880003 -0.18965144 0.59800005 9.4086948e-39
-0.034740955 -0.18965144 0.59800005 1.014626e-38
-0.033601906 -0.18965144 0.59800005 1.1523427e-38
-0.011400001 -0.19980001 0.63000005 1.5676556e-38
-0.010151429 -0.19884859 0.62700003 1.3002882e-38
-0.0089571439 -0.19884859 0.62700003 1.3832283e-38
-0.0077009527 -0.19726287 0.62200004 1.4846435e-38
-0.0064952383 -0.19662857 0.62 1.5030458e-38
-0.0053057144 -0.19631143 0.61900002 1.5583631e-38
-0.0041066669 -0.19536002 0.61600006 1.56751e-38
-0.0029285715 -0.19504285 0.61500001 1.5582904e-38
-0.0017542857 -0.19472572 0.61400002 1.5674388e-38
-0.0005847619 -0.19472572 0.61400002 1.5858779e-38
0.00058285717 -0.19409144 0.61200005 1.5674032e-38
0.0017457142 -0.19377428 0.611 1.6319401e-38
0.002904762 -0.19345714 0.61000001 1.6136075e-38
0.0040600002 -0.19314002 0.60900003 1.6136075e-38
0.0052114287 -0.19282287 0.60800004 1.5859491e-38
0.0063590482 -0.19250572 0.60700005 1.56751e-38
0.0075028571 -0.19218858 0.60600001 1.5398516e-38
0.0086571425 -0.19218858 0.60600001 1.5214124e-38
0.0097790482 -0.19155429 0.60400003 1.5213396e-38
0.010929525 -0.19155429 0.60400003 1.5397787e-38
0.012060001 -0.19123715 0.60300004 1.5489274e-38
0.013186668 -0.19092001 0.60200006 1.5581469e-38
0.014309525 -0.19060287 0.60100001 1.5397445e-38
0.015454287 -0.19060287 0.60100001 1.5674032e-38
0.016599048 -0.19060287 0.60100001 1.5766216e-38
0.017714286 -0.19028571 0.60000002 1.5858412e-38
0.018857144 -0.19028571 0.60000002 1.5674384e-38
0.019966668 -0.18996859 0.59900004 1.6043166e-38
0.021107621 -0.18996859 0.59900004 1.6043517e-38
0.022248574 -0.18996859 0.59900004 1.6320103e-38
0.023350477 -0.18965144 0.59800005 1.6319387e-38
0.024489526 -0.18965144 0.59800005 1.6319387e-38
0.025628572 -0.18965144 0.59800005 1.641123e-38
0.026767621 -0.18965144 0.59800005 1.6687817e-38
0.027906667 -0.18965144 0.59800005 1.6596693e-38
0.028997144 -0.18933427 0.597 1.6596693e-38
0.030134287 -0.18933427 0.597 1.6688536e-38
0.03121905 -0.18901715 0.59600002 1.7057318e-38
0.032354284 -0.18901715 0.59600002 1.696512e-38
0.033489525 -0.18901715 0.59600002 1.7149511e-38
0.034624763 -0.18901715 0.59600002 1.7149511e-38
0.03576 -0.18901715 0.59600002 1.7149511e-38
0.036895238 -0.18901715 0.59600002 1.7241707e-38
0.038030475 -0.18901715 0.59600002 1.7518294e-38
0.039231431 -0.18933427 0.597 1.7426454e-38
0.040368572 -0.18933427 0.597 1.7518649e-38
0.041505717 -0.18933427 0.597 1.7518663e-38
0.042642858 -0.18933427 0.597 1.7426468e-38
0.043780003 -0.18933427 0.597 1.742682e-38
0.044917144 -0.18933427 0.597 1.742682e-38
0.046054285 -0.18933427 0.597 1.7518294e-38
0.047191426 -0.18933427 0.597 1.7518294e-38
0.048328571 -0.18933427 0.597 1.7518296e-38
0.049548574 -0.18965144 0.59800005 1.7610492e-38
0.050687622 -0.18965144 0.59800005 1.7795234e-38
0.051826671 -0.18965144 0.59800005 1.7887429e-38
0.053054288 -0.18996859 0.59900004 1.7702685e-38
0.05419524 -0.18996859 0.59900004 1.7518294e-38
0.055520952 -0.19060287 0.60100001 1.7610492e-38
0.056665715 -0.19060287 0.60100001 1.7794883e-38
0.057810474 -0.19060287 0.60100001 1.7610492e-38
0.058955237 -0.19060287 0.60100001 1.7518296e-38
0.060200006 -0.19092001 0.60200006 1.7518296e-38
0.061346676 -0.19092001 0.60200006 1.7702688e-38
0.062493335 -0.19092001 0.60200006 1.7426098e-38
0.063745722 -0.19123715 0.60300004 1.7426098e-38
0.065001912 -0.19155429 0.60400003 1.7426098e-38
0.066371433 -0.19218858 0.60600001 1.7333902e-38
0.067525715 -0.19218858 0.60600001 1.7149511e-38
0.068679996 -0.19218858 0.60600001 1.7241707e-38
0.06994953 -0.19250572 0.60700005 1.7241707e-38
0.07145714 -0.19345714 0.61000001 1.7333902e-38
0.072619043 -0.19345714 0.61000001 1.7149511e-38
0.074022859 -0.19409144 0.61200005 1.7149511e-38
0.07531143 -0.19440858 0.61300004 1.7057315e-38
0.076603815 -0.19472572 0.61400002 1.6872924e-38
0.0779 -0.19504285 0.61500001 1.678145e-38
0.079071432 -0.19504285 0.61500001 1.6689255e-38
0.080373339 -0.19536002 0.61600006 1.6504863e-38
0.08194381 -0.19631143 0.61900002 1.5582907e-38
0.083257139 -0.19662857 0.62 1.4755292e-38
0.084574297 -0.19694573 0.62100005 1.5585052e-38
-0.013887619 -0.19986096 0.634 1.9916452e-38
-0.01264 -0.19923049 0.63200003 1.8717909e-38
-0.011400001 -0.19860001 0.63000005 1.595278e-38
-0.010183809 -0.19828476 0.62900001 1.3186911e-38
-0.0089285709 -0.19702381 0.625 1.3739354e-38
-0.0077133332 -0.19639334 0.62300003 1.5030093e-38
-0.0065057147 -0.19576286 0.62100005 1.5030093e-38
-0.0053057144 -0.19513239 0.61900002 1.5583267e-38
-0.0041200002 -0.19481716 0.61800003 1.5675103e-38
-0.0029333336 -0.19418667 0.61600006 1.5582907e-38
-0.0017571428 -0.19387142 0.61500001 1.5674384e-38
-0.0005847619 -0.19355619 0.61400002 1.5674384e-38
0.00058380957 -0.19324097 0.61300004 1.5582907e-38
0.0017485716 -0.19292574 0.61200005 1.6043885e-38
0.002904762 -0.19229524 0.61000001 1.5951687e-38
0.0040600002 -0.19198 0.60900003 1.6136078e-38
0.0052114287 -0.19166477 0.60800004 1.5768014e-38
0.0063695242 -0.19166477 0.60800004 1.5491427e-38
0.0075152386 -0.19134954 0.60700005 1.5397794e-38
0.0086571425 -0.19103429 0.60600001 1.5397794e-38
0.0097790482 -0.19040382 0.60400003 1.5489983e-38
0.010929525 -0.19040382 0.60400003 1.5582178e-38
0.012060001 -0.19008859 0.60300004 1.5765493e-38
0.013208573 -0.19008859 0.60300004 1.5857689e-38
0.014333334 -0.18977335 0.60200006 1.5673665e-38
0.015454287 -0.18945809 0.60100001 1.5673665e-38
0.016599048 -0.18945809 0.60100001 1.5674021e-38
0.017714286 -0.18914287 0.60000002 1.5858412e-38
0.018857144 -0.18914287 0.60000002 1.5766216e-38
0.019966668 -0.18882763 0.59900004 1.6134999e-38
0.021107621 -0.18882763 0.59900004 1.6227908e-38
0.022248574 -0.18882763 0.59900004 1.6320103e-38
0.023350477 -0.1885124 0.59800005 1.6227555e-38
0.024489526 -0.1885124 0.59800005 1.6227555e-38
0.025628572 -0.1885124 0.59800005 1.631939e-38
0.026767621 -0.1885124 0.59800005 1.6688173e-38
0.027906667 -0.1885124 0.59800005 1.6596693e-38
0.029045716 -0.1885124 0.59800005 1.6688889e-38
0.030134287 -0.18819714 0.597 1.6688533e-38
0.031271428 -0.18819714 0.597 1.7057315e-38
0.032408569 -0.18819714 0.597 1.6965476e-38
0.033545714 -0.18819714 0.597 1.7149867e-38
0.034682855 -0.18819714 0.597 1.7241346e-38
0.03582 -0.18819714 0.597 1.7333542e-38
0.036957141 -0.18819714 0.597 1.7426098e-38
0.038094286 -0.18819714 0.597 1.7518294e-38
0.039231431 -0.18819714 0.597 1.7426454e-38
0.040436193 -0.1885124 0.59800005 1.7426454e-38
0.041575242 -0.1885124 0.59800005 1.7426465e-38
0.042714287 -0.1885124 0.59800005 1.7426465e-38
0.043780003 -0.18819714 0.597 1.751901e-38
0.044917144 -0.18819714 0.597 1.751901e-38
0.046054285 -0.18819714 0.597 1.7610845e-38
0.047191426 -0.18819714 0.597 1.7610845e-38
0.048409529 -0.1885124 0.59800005 1.7518294e-38
0.049548574 -0.1885124 0.59800005 1.7610489e-38
0.050772384 -0.18882763 0.59900004 1.7610845e-38
0.052000001 -0.18914287 0.60000002 1.7703041e-38
0.053142861 -0.18914287 0.60000002 1.779452e-38
0.054285716 -0.18914287 0.60000002 1.7702325e-38
0.055520952 -0.18945809 0.60100001 1.7610845e-38
0.056665715 -0.18945809 0.60100001 1.7795236e-38
0.057810474 -0.18945809 0.60100001 1.7519015e-38
0.058955237 -0.18945809 0.60100001 1.7519015e-38
0.060200006 -0.18977335 0.60200006 1.7519015e-38
0.061346676 -0.18977335 0.60200006 1.742682e-38
0.062493335 -0.18977335 0.60200006 1.7333905e-38
0.063745722 -0.19008859 0.60300004 1.7426101e-38
0.065001912 -0.19040382 0.60400003 1.7518296e-38
0.066371433 -0.19103429 0.60600001 1.7426101e-38
0.067525715 -0.19103429 0.60600001 1.7334611e-38
0.068793342 -0.19134954 0.60700005 1.7334611e-38
0.070179999 -0.19198 0.60900003 1.7149867e-38
0.07145714 -0.19229524 0.61000001 1.7242063e-38
0.072619043 -0.19229524 0.61000001 1.7149511e-38
0.074022859 -0.19292574 0.61200005 1.7057315e-38
0.07531143 -0.19324097 0.61300004 1.7057315e-38
0.076603815 -0.19355619 0.61400002 1.6872924e-38
0.0779 -0.19387142 0.61500001 1.6689255e-38
0.079071432 -0.19387142 0.61500001 1.6597059e-38
0.080373339 -0.19418667 0.61600006 1.6688536e-38
0.082076192 -0.19544762 0.62 1.5582188e-38
0.083257139 -0.19544762 0.62 1.4293588e-38
-0.015119049 -0.19896668 0.63500005 1.9916086e-38
-0.013887619 -0.19865333 0.634 2.0008285e-38
-0.01264 -0.19802667 0.63200003 1.8809741e-38
-0.011400001 -0.19740002 0.63000005 1.6229019e-38
-0.010183809 -0.19708668 0.62900001 1.3278759e-38
-0.0089285709 -0.19583333 0.625 1.3739737e-38
-0.0077133332 -0.19520667 0.62300003 1.5307063e-38
-0.0065057147 -0.19458002 0.62100005 1.5307399e-38
-0.0053142854 -0.19426666 0.62 1.5768377e-38
-0.0041200002 -0.19364001 0.61800003 1.595204e-38
-0.0029428573 -0.19364001 0.61800003 1.595204e-38
-0.0017571428 -0.1927 0.61500001 1.5859491e-38
-0.0005847619 -0.19238667 0.61400002 1.5951687e-38
0.00058380957 -0.19207335 0.61300004 1.5951687e-38
0.0017485716 -0.19176002 0.61200005 1.5951687e-38
0.0029095239 -0.19144666 0.611 1.6043519e-38
0.0040666666 -0.19113334 0.61000001 1.6043519e-38
0.0052200002 -0.19082001 0.60900003 1.5859128e-38
0.0063695242 -0.19050668 0.60800004 1.5582541e-38
0.0075152386 -0.19019336 0.60700005 1.548999e-38
0.0086571425 -0.18988 0.60600001 1.5582185e-38
0.0098114284 -0.18988 0.60600001 1.539815e-38
0.010929525 -0.18925333 0.60400003 1.5490346e-38
0.012080001 -0.18925333 0.60400003 1.5581822e-38
0.013208573 -0.18894 0.60300004 1.5674018e-38
0.014333334 -0.18862668 0.60200006 1.5581825e-38
0.015480001 -0.18862668 0.60200006 1.5581825e-38
0.016599048 -0.18831334 0.60100001 1.5582188e-38
0.017714286 -0.18800001 0.60000002 1.6043166e-38
0.018857144 -0.18800001 0.60000002 1.5858772e-38
0.02 -0.18800001 0.60000002 1.6043163e-38
0.021142857 -0.18800001 0.60000002 1.6043519e-38
0.022248574 -0.18768668 0.59900004 1.6227911e-38
0.023389526 -0.18768668 0.59900004 1.6227562e-38
0.024530478 -0.18768668 0.59900004 1.6227562e-38
0.02567143 -0.18768668 0.59900004 1.6319038e-38
0.026812382 -0.18768668 0.59900004 1.6595625e-38
0.027953334 -0.18768668 0.59900004 1.6504142e-38
0.029094286 -0.18768668 0.59900004 1.6688533e-38
0.030134287 -0.18706 0.597 1.6688536e-38
0.031271428 -0.18706 0.597 1.7057318e-38
0.032408569 -0.18706 0.597 1.696512e-38
0.033545714 -0.18706 0.597 1.7149511e-38
0.034682855 -0.18706 0.597 1.7240991e-38
0.03582 -0.18706 0.597 1.7333186e-38
0.036957141 -0.18706 0.597 1.7425738e-38
0.038158096 -0.18737336 0.59800005 1.7517933e-38
0.039297149 -0.18737336 0.59800005 1.7333902e-38
0.040436193 -0.18737336 0.59800005 1.7333902e-38
0.041575242 -0.18737336 0.59800005 1.742682e-38
0.042714287 -0.18737336 0.59800005 1.742682e-38
0.043853339 -0.18737336 0.59800005 1.7426454e-38
0.044992384 -0.18737336 0.59800005 1.7610845e-38
0.046131432 -0.18737336 0.59800005 1.7610845e-38
0.047270477 -0.18737336 0.59800005 1.7610845e-38
0.04849048 -0.18768668 0.59900004 1.7610489e-38
0.049631432 -0.18768668 0.59900004 1.7702685e-38
0.050857145 -0.18800001 0.60000002 1.7702685e-38
0.052000001 -0.18800001 0.60000002 1.7518294e-38
0.053231429 -0.18831334 0.60100001 1.7610489e-38
0.054376192 -0.18831334 0.60100001 1.7518294e-38
0.055520952 -0.18831334 0.60100001 1.7518649e-38
0.056665715 -0.18831334 0.60100001 1.7887432e-38
0.057906672 -0.18862668 0.60200006 1.7518296e-38
0.059053335 -0.18862668 0.60200006 1.7518296e-38
0.060200006 -0.18862668 0.60200006 1.7517582e-38
0.061346676 -0.18862668 0.60200006 1.7517582e-38
0.062597148 -0.18894 0.60300004 1.7333909e-38
0.063851431 -0.18925333 0.60400003 1.7426105e-38
0.065001912 -0.18925333 0.60400003 1.7518301e-38
0.066480957 -0.19019336 0.60700005 1.7426105e-38
0.067637146 -0.19019336 0.60700005 1.724205e-38
0.068906672 -0.19050668 0.60800004 1.7518637e-38
0.070179999 -0.19082001 0.60900003 1.7333892e-38
0.07145714 -0.19113334 0.61000001 1.7241697e-38
0.072619043 -0.19113334 0.61000001 1.7149151e-38
0.074022859 -0.19176002 0.61200005 1.7056955e-38
0.07531143 -0.19207335 0.61300004 1.696512e-38
0.076728575 -0.1927 0.61500001 1.6872924e-38
0.078026675 -0.19301334 0.61600006 1.6689249e-38
0.079200007 -0.19301334 0.61600006 1.6412662e-38
0.080373339 -0.19301334 0.61600006 1.6412313e-38
0.082208581 -0.19458002 0.62100005 1.5305966e-38
-0.031638097 -0.18810287 0.60400003 1.1892845e-38
-0.030487619 -0.18810287 0.60400003 1.6133844e-38
-0.015119049 -0.19775715 0.63500005 1.9824253e-38
-0.013887619 -0.19744572 0.634 2.0284869e-38
-0.01264 -0.19682287 0.63200003 1.9455108e-38
-0.011418096 -0.19651145 0.63100004 1.687401e-38
-0.010183809 -0.19588856 0.62900001 1.3370576e-38
-0.0089571439 -0.19526573 0.62700003 1.3646807e-38
-0.0077257147 -0.19433144 0.62400001 1.5398524e-38
-0.0065057147 -0.19339715 0.62100005 1.5307047e-38
-0.0053142854 -0.19308572 0.62 1.5860221e-38
-0.0041266666 -0.1927743 0.61900002 1.5952054e-38
-0.0029428573 -0.19246286 0.61800003 1.5859858e-38
-0.0017600001 -0.19184002 0.61600006 1.5767298e-38
-0.0005857143 -0.19152856 0.61500001 1.5951689e-38
0.0005847619 -0.19121714 0.61400002 1.5951684e-38
0.0017485716 -0.19059429 0.61200005 1.5951684e-38
0.0029095239 -0.19028285 0.611 1.6135715e-38
0.0040666666 -0.18997143 0.61000001 1.6135715e-38
0.0052200002 -0.18966 0.60900003 1.5950605e-38
0.0063695242 -0.18934858 0.60800004 1.5858409e-38
0.0075152386 -0.18903716 0.60700005 1.5582185e-38
0.0086571425 -0.18872571 0.60600001 1.5582185e-38
0.0098114284 -0.18872571 0.60600001 1.5582541e-38
0.010929525 -0.18810287 0.60400003 1.5582541e-38
0.012080001 -0.18810287 0.60400003 1.5582541e-38
0.013208573 -0.18779144 0.60300004 1.5582541e-38
0.014333334 -0.18748002 0.60200006 1.5581822e-38
0.015480001 -0.18748002 0.60200006 1.5581822e-38
0.016599048 -0.18716858 0.60100001 1.5489992e-38
0.017743809 -0.18716858 0.60100001 1.5950971e-38
0.018888572 -0.18716858 0.60100001 1.5675103e-38
0.02 -0.18685715 0.60000002 1.5859494e-38
0.021142857 -0.18685715 0.60000002 1.5858772e-38
0.022285715 -0.18685715 0.60000002 1.631975e-38
0.023428572 -0.18685715 0.60000002 1.631975e-38
0.02457143 -0.18685715 0.60000002 1.6411946e-38
0.025714288 -0.18685715 0.60000002 1.6504144e-38
0.026857143 -0.18685715 0.60000002 1.6504144e-38
0.027953334 -0.18654573 0.59900004 1.6596337e-38
0.029094286 -0.18654573 0.59900004 1.6688533e-38
0.030134287 -0.18592285 0.597 1.6688533e-38
0.031271428 -0.18592285 0.597 1.696512e-38
0.032408569 -0.18592285 0.597 1.687328e-38
0.033545714 -0.18592285 0.597 1.7149867e-38
0.034682855 -0.18592285 0.597 1.7241346e-38
0.03582 -0.18592285 0.597 1.7333542e-38
0.037019052 -0.18623431 0.59800005 1.7425738e-38
0.038221907 -0.18654573 0.59900004 1.7425738e-38
0.039362859 -0.18654573 0.59900004 1.7241707e-38
0.040503811 -0.18654573 0.59900004 1.7333902e-38
0.041644763 -0.18654573 0.59900004 1.742682e-38
0.042714287 -0.18623431 0.59800005 1.742682e-38
0.043853339 -0.18623431 0.59800005 1.7334621e-38
0.044992384 -0.18623431 0.59800005 1.7519012e-38
0.046131432 -0.18623431 0.59800005 1.7702688e-38
0.047270477 -0.18623431 0.59800005 1.7702688e-38
0.04849048 -0.18654573 0.59900004 1.7610492e-38
0.049631432 -0.18654573 0.59900004 1.7702688e-38
0.050941907 -0.18716858 0.60100001 1.7610856e-38
0.052086666 -0.18716858 0.60100001 1.7610856e-38
0.053231429 -0.18716858 0.60100001 1.7519015e-38
0.054376192 -0.18716858 0.60100001 1.742682e-38
0.055520952 -0.18716858 0.60100001 1.7518294e-38
0.056760006 -0.18748002 0.60200006 1.7702685e-38
0.057906672 -0.18748002 0.60200006 1.7426101e-38
0.059053335 -0.18748002 0.60200006 1.7426101e-38
0.060200006 -0.18748002 0.60200006 1.7517933e-38
0.061448574 -0.18779144 0.60300004 1.7517933e-38
0.062597148 -0.18779144 0.60300004 1.7426101e-38
0.063851431 -0.18810287 0.60400003 1.7426101e-38
0.065217145 -0.18872571 0.60600001 1.7518301e-38
0.066480957 -0.18903716 0.60700005 1.7426105e-38
0.067637146 -0.18903716 0.60700005 1.7333892e-38
0.069020003 -0.18966 0.60900003 1.7426088e-38
0.070179999 -0.18966 0.60900003 1.7334258e-38
0.071574286 -0.19028285 0.611 1.7334258e-38
0.072738096 -0.19028285 0.611 1.7149151e-38
0.074143812 -0.19090572 0.61300004 1.7056955e-38
0.075434282 -0.19121714 0.61400002 1.696512e-38
0.076728575 -0.19152856 0.61500001 1.6872924e-38
0.078406669 -0.1927743 0.61900002 1.6689968e-38
0.079585716 -0.1927743 0.61900002 1.6505577e-38
0.080895238 -0.19308572 0.62 1.6227922e-38
0.08247333 -0.19402 0.62300003 1.5121574e-38
-0.032897141 -0.18757142 0.60600001 9.3168776e-39
-0.031638097 -0.18695238 0.60400003 1.0786573e-38
-0.030487619 -0.18695238 0.60400003 1.3552442e-38
-0.029337144 -0.18695238 0.60400003 1.5487809e-38
-0.028186668 -0.18695238 0.60400003 1.8806852e-38
-0.013887619 -0.1962381 0.634 2.0192676e-38
-0.01264 -0.19561906 0.63200003 1.9455111e-38
-0.011418096 -0.19530953 0.63100004 1.7151309e-38
-0.010200001 -0.19500001 0.63000005 1.3094701e-38
-0.0089714285 -0.19438095 0.62800002 1.3463498e-38
-0.0077380952 -0.19345237 0.625 1.530741e-38
-0.0065161907 -0.19252382 0.62200004 1.5491441e-38
-0.0053142854 -0.19190475 0.62 1.6044615e-38
-0.0041266666 -0.19159524 0.61900002 1.6228288e-38
-0.0029428573 -0.19128571 0.61800003 1.5951701e-38
-0.0017600001 -0.19066668 0.61600006 1.6043531e-38
-0.0005857143 -0.19035713 0.61500001 1.6043531e-38
0.0005847619 -0.19004762 0.61400002 1.6227911e-38
0.0017514287 -0.18973809 0.61300004 1.6412302e-38
0.0029142858 -0.18942858 0.61200005 1.6411583e-38
0.0040666666 -0.18880953 0.61000001 1.6227192e-38
0.0052200002 -0.1885 0.60900003 1.5859128e-38
0.0063695242 -0.18819048 0.60800004 1.5766932e-38
0.0075152386 -0.18788098 0.60700005 1.5489992e-38
0.0086571425 -0.18757142 0.60600001 1.5489992e-38
0.0098114284 -0.18757142 0.60600001 1.5581825e-38
0.010965714 -0.18757142 0.60600001 1.5581825e-38
0.01212 -0.18757142 0.60600001 1.5581822e-38
0.013230477 -0.18695238 0.60400003 1.5674018e-38
0.014333334 -0.18633336 0.60200006 1.5857689e-38
0.015480001 -0.18633336 0.60200006 1.5857689e-38
0.016626669 -0.18633336 0.60200006 1.576586e-38
0.017743809 -0.1860238 0.60100001 1.5950252e-38
0.018888572 -0.1860238 0.60100001 1.5858775e-38
0.02 -0.1857143 0.60000002 1.5858775e-38
0.021142857 -0.1857143 0.60000002 1.6043166e-38
0.022285715 -0.1857143 0.60000002 1.6411949e-38
0.023428572 -0.1857143 0.60000002 1.6320103e-38
0.02457143 -0.1857143 0.60000002 1.6412299e-38
0.025714288 -0.1857143 0.60000002 1.6504498e-38
0.026857143 -0.1857143 0.60000002 1.6504498e-38
0.028000001 -0.1857143 0.60000002 1.659634e-38
0.029094286 -0.18540478 0.59900004 1.659634e-38
0.030184764 -0.18509525 0.59800005 1.6780731e-38
0.031323813 -0.18509525 0.59800005 1.7149514e-38
0.032462858 -0.18509525 0.59800005 1.7149864e-38
0.033601906 -0.18509525 0.59800005 1.7149864e-38
0.034740955 -0.18509525 0.59800005 1.7333542e-38
0.035880003 -0.18509525 0.59800005 1.7333542e-38
0.037080955 -0.18540478 0.59900004 1.7333542e-38
0.038221907 -0.18540478 0.59900004 1.7517933e-38
0.039362859 -0.18540478 0.59900004 1.72417e-38
0.040503811 -0.18540478 0.59900004 1.7333895e-38
0.041644763 -0.18540478 0.59900004 1.7518296e-38
0.042785715 -0.18540478 0.59900004 1.7518296e-38
0.043926667 -0.18540478 0.59900004 1.7426101e-38
0.04506762 -0.18540478 0.59900004 1.7518296e-38
0.046131432 -0.18509525 0.59800005 1.7518663e-38
0.047270477 -0.18509525 0.59800005 1.7518663e-38
0.04849048 -0.18540478 0.59900004 1.7610492e-38
0.049631432 -0.18540478 0.59900004 1.7610492e-38
0.050941907 -0.1860238 0.60100001 1.7610859e-38
0.052086666 -0.1860238 0.60100001 1.7610859e-38
0.053231429 -0.1860238 0.60100001 1.7702688e-38
0.054376192 -0.1860238 0.60100001 1.7610492e-38
0.055613339 -0.18633336 0.60200006 1.7518296e-38
0.056760006 -0.18633336 0.60200006 1.7702688e-38
0.058002859 -0.18664287 0.60300004 1.7702688e-38
0.059151433 -0.18664287 0.60300004 1.7610492e-38
0.060300004 -0.18664287 0.60300004 1.7610129e-38
0.061448574 -0.18664287 0.60300004 1.7610129e-38
0.062700957 -0.18695238 0.60400003 1.7425382e-38
0.064062856 -0.18757142 0.60600001 1.7425382e-38
0.065324761 -0.18788098 0.60700005 1.7333905e-38
0.066590481 -0.18819048 0.60800004 1.7333905e-38
0.067748569 -0.18819048 0.60800004 1.7241707e-38
0.069133334 -0.18880953 0.61000001 1.7241707e-38
0.070295244 -0.18880953 0.61000001 1.7241707e-38
0.071574286 -0.18911904 0.611 1.7241707e-38
0.072738096 -0.18911904 0.611 1.7056604e-38
0.074143812 -0.18973809 0.61300004 1.7056604e-38
0.075557142 -0.19035713 0.61500001 1.6872924e-38
0.076853342 -0.19066668 0.61600006 1.6872924e-38
0.078533329 -0.19190475 0.62 1.6873277e-38
0.079714283 -0.19190475 0.62 1.6781082e-38
0.081286669 -0.19283333 0.62300003 1.6320472e-38
0.08247333 -0.19283333 0.62300003 1.4845342e-38
-0.032788571 -0.18580191 0.60400003 9.2236127e-39
-0.031638097 -0.18580191 0.60400003 1.0693276e-38
-0.030487619 -0.18580191 0.60400003 1.2260602e-38
-0.029337144 -0.18580191 0.60400003 1.438178e-38
-0.028186668 -0.18580191 0.60400003 1.7885214e-38
-0.027036192 -0.18580191 0.60400003 1.8900845e-38
-0.013909525 -0.1953381 0.63500005 2.0192676e-38
-0.01264 -0.19441526 0.63200003 1.9731698e-38
-0.01143619 -0.19441526 0.63200003 1.7427536e-38
-0.010200001 -0.19380002 0.63000005 1.3094341e-38
-0.0089714285 -0.19318476 0.62800002 1.3371288e-38
-0.0077380952 -0.1922619 0.625 1.5491788e-38
-0.0065266667 -0.19164667 0.62300003 1.5582915e-38
-0.0053228578 -0.19103144 0.62100005 1.6043894e-38
-0.0041266666 -0.1904162 0.61900002 1.6228641e-38
-0.002947619 -0.1904162 0.61900002 1.6136445e-38
-0.0017657144 -0.19010858 0.61800003 1.6135726e-38
-0.00058666669 -0.18949334 0.61600006 1.6135726e-38
0.0005857143 -0.18918572 0.61500001 1.6227911e-38
0.0017514287 -0.18857048 0.61300004 1.6412302e-38
0.0029190476 -0.18857048 0.61300004 1.6227922e-38
0.0040733335 -0.18795523 0.611 1.6135726e-38
0.0052285716 -0.18764761 0.61000001 1.5950968e-38
0.0063800002 -0.18734001 0.60900003 1.548999e-38
0.0075276191 -0.1870324 0.60800004 1.5672942e-38
0.008671429 -0.18672478 0.60700005 1.5765137e-38
0.0098114284 -0.18641715 0.60600001 1.5581822e-38
0.010965714 -0.18641715 0.60600001 1.5581822e-38
0.01212 -0.18641715 0.60600001 1.5581822e-38
0.013230477 -0.18580191 0.60400003 1.5581822e-38
0.014333334 -0.18518668 0.60200006 1.5765488e-38
0.015480001 -0.18518668 0.60200006 1.5949879e-38
0.016626669 -0.18518668 0.60200006 1.5858765e-38
0.017743809 -0.18487905 0.60100001 1.5950961e-38
0.018888572 -0.18487905 0.60100001 1.5950605e-38
0.02 -0.18457143 0.60000002 1.6042801e-38
0.021142857 -0.18457143 0.60000002 1.6135715e-38
0.022285715 -0.18457143 0.60000002 1.6320106e-38
0.023428572 -0.18457143 0.60000002 1.6320106e-38
0.02457143 -0.18457143 0.60000002 1.6320106e-38
0.025714288 -0.18457143 0.60000002 1.6504142e-38
0.026857143 -0.18457143 0.60000002 1.6688533e-38
0.028000001 -0.18457143 0.60000002 1.6688536e-38
0.029094286 -0.18426381 0.59900004 1.6688536e-38
0.03023524 -0.18426381 0.59900004 1.687328e-38
0.031323813 -0.18395621 0.59800005 1.7149867e-38
0.032462858 -0.18395621 0.59800005 1.7149864e-38
0.033601906 -0.18395621 0.59800005 1.724206e-38
0.034799047 -0.18426381 0.59900004 1.7241707e-38
0.035940003 -0.18426381 0.59900004 1.7241707e-38
0.037142858 -0.18457143 0.60000002 1.7333542e-38
0.038285714 -0.18457143 0.60000002 1.7610129e-38
0.039428573 -0.18457143 0.60000002 1.7333539e-38
0.040503811 -0.18426381 0.59900004 1.7425735e-38
0.041644763 -0.18426381 0.59900004 1.7610129e-38
0.042785715 -0.18426381 0.59900004 1.7517933e-38
0.043926667 -0.18426381 0.59900004 1.7517933e-38
0.04506762 -0.18426381 0.59900004 1.7610129e-38
0.046208575 -0.18426381 0.59900004 1.7518296e-38
0.047349527 -0.18426381 0.59900004 1.7610492e-38
0.04857143 -0.18457143 0.60000002 1.7610492e-38
0.049714286 -0.18457143 0.60000002 1.7610492e-38
0.050941907 -0.18487905 0.60100001 1.7518661e-38
0.052173339 -0.18518668 0.60200006 1.7610856e-38
0.053320002 -0.18518668 0.60200006 1.7794164e-38
0.054466672 -0.18518668 0.60200006 1.7794164e-38
0.055613339 -0.18518668 0.60200006 1.7702322e-38
0.056760006 -0.18518668 0.60200006 1.7702322e-38
0.058002859 -0.18549429 0.60300004 1.779488e-38
0.059151433 -0.18549429 0.60300004 1.7702685e-38
0.060600001 -0.18641715 0.60600001 1.7518647e-38
0.061754286 -0.18641715 0.60600001 1.7518647e-38
0.062908575 -0.18641715 0.60600001 1.7333905e-38
0.06416858 -0.18672478 0.60700005 1.7333905e-38
0.065324761 -0.18672478 0.60700005 1.7425738e-38
0.066590481 -0.1870324 0.60800004 1.7333542e-38
0.067860007 -0.18734001 0.60900003 1.7241344e-38
0.069133334 -0.18764761 0.61000001 1.7333539e-38
0.070410475 -0.18795523 0.611 1.7333902e-38
0.071691439 -0.18826286 0.61200005 1.7241707e-38
0.072857149 -0.18826286 0.61200005 1.7056955e-38
0.074264765 -0.1888781 0.61400002 1.7056955e-38
0.075680003 -0.18949334 0.61600006 1.6781084e-38
0.077227622 -0.1904162 0.61900002 1.6688889e-38
0.078660011 -0.19103144 0.62100005 1.6596337e-38
0.079842865 -0.19103144 0.62100005 1.6780728e-38
0.081286669 -0.19164667 0.62300003 1.6504863e-38
0.08247333 -0.19164667 0.62300003 1.4753146e-38
-0.032788571 -0.18465143 0.60400003 1.0421077e-38
-0.031638097 -0.18465143 0.60400003 9.1310079e-39
-0.030487619 -0.18465143 0.60400003 9.6841817e-39
-0.029337144 -0.18465143 0.60400003 1.1892505e-38
-0.028186668 -0.18465143 0.60400003 1.5764721e-38
-0.027036192 -0.18465143 0.60400003 1.7516476e-38
-0.025971429 -0.18526286 0.60600001 2.0005758e-38
-0.013909525 -0.19412859 0.63500005 2.010084e-38
-0.01264 -0.19321144 0.63200003 1.9824253e-38
-0.01143619 -0.19321144 0.63200003 1.7704123e-38
-0.010200001 -0.19260001 0.63000005 1.3002145e-38
-0.0089714285 -0.19198859 0.62800002 1.3095434e-38
-0.0077380952 -0.19107142 0.625 1.5308129e-38
-0.0065266667 -0.19046 0.62300003 1.5859854e-38
-0.0053314292 -0.1901543 0.62200004 1.6044245e-38
-0.0041333335 -0.18954286 0.62 1.6136081e-38
-0.002947619 -0.18923715 0.61900002 1.6504863e-38
-0.0017685716 -0.18923715 0.61900002 1.6227557e-38
-0.00058857148 -0.18893144 0.61800003 1.6135362e-38
0.00058666669 -0.18832003 0.61600006 1.6135715e-38
0.0017542857 -0.18770857 0.61400002 1.6227911e-38
0.0029190476 -0.18740286 0.61300004 1.6411597e-38
0.0040800003 -0.18709715 0.61200005 1.6227206e-38
0.005237143 -0.18679142 0.611 1.5859128e-38
0.0063800002 -0.18618001 0.60900003 1.5490346e-38
0.0075276191 -0.1858743 0.60800004 1.548963e-38
0.008671429 -0.18556859 0.60700005 1.5581825e-38
0.0098276203 -0.18556859 0.60700005 1.5582178e-38
0.010965714 -0.18526286 0.60600001 1.5582178e-38
0.01212 -0.18526286 0.60600001 1.5581822e-38
0.013274285 -0.18526286 0.60600001 1.5489627e-38
0.014357143 -0.18434574 0.60300004 1.5673292e-38
0.015505716 -0.18434574 0.60300004 1.6042075e-38
0.016626669 -0.18404001 0.60200006 1.6042075e-38
0.017743809 -0.18373428 0.60100001 1.6226466e-38
0.018888572 -0.18373428 0.60100001 1.6043154e-38
0.020033333 -0.18373428 0.60100001 1.6227545e-38
0.021178095 -0.18373428 0.60100001 1.6135715e-38
0.022322858 -0.18373428 0.60100001 1.6320106e-38
0.023467619 -0.18373428 0.60100001 1.6320106e-38
0.02461238 -0.18373428 0.60100001 1.6227911e-38
0.025757143 -0.18373428 0.60100001 1.6504498e-38
0.026901904 -0.18373428 0.60100001 1.6688889e-38
0.028000001 -0.18342857 0.60000002 1.6688536e-38
0.029142857 -0.18342857 0.60000002 1.6688536e-38
0.030285714 -0.18342857 0.60000002 1.6781084e-38
0.031376194 -0.18312286 0.59900004 1.687328e-38
0.032517143 -0.18312286 0.59900004 1.7056952e-38
0.033714287 -0.18342857 0.60000002 1.7333539e-38
0.034857146 -0.18342857 0.60000002 1.7333539e-38
0.036000002 -0.18342857 0.60000002 1.7333539e-38
0.037142858 -0.18342857 0.60000002 1.7425382e-38
0.038285714 -0.18342857 0.60000002 1.7517577e-38
0.039428573 -0.18342857 0.60000002 1.7425382e-38
0.040571429 -0.18342857 0.60000002 1.7517577e-38
0.041644763 -0.18312286 0.59900004 1.7517933e-38
0.042785715 -0.18312286 0.59900004 1.7610129e-38
0.043926667 -0.18312286 0.59900004 1.7702322e-38
0.045142859 -0.18342857 0.60000002 1.7886713e-38
0.046285715 -0.18342857 0.60000002 1.7610845e-38
0.047428574 -0.18342857 0.60000002 1.7703041e-38
0.04857143 -0.18342857 0.60000002 1.7519012e-38
0.049714286 -0.18342857 0.60000002 1.7519012e-38
0.051026672 -0.18404001 0.60200006 1.7610492e-38
0.052173339 -0.18404001 0.60200006 1.7610492e-38
0.053320002 -0.18404001 0.60200006 1.7702325e-38
0.054466672 -0.18404001 0.60200006 1.7702325e-38
0.055705719 -0.18434574 0.60300004 1.7610126e-38
0.056948572 -0.18465143 0.60400003 1.7610126e-38
0.05809905 -0.18465143 0.60400003 1.7702322e-38
0.059445713 -0.18526286 0.60600001 1.7702322e-38
0.060600001 -0.18526286 0.60600001 1.7610479e-38
0.061856195 -0.18556859 0.60700005 1.7702675e-38
0.063012384 -0.18556859 0.60700005 1.7426098e-38
0.064274289 -0.1858743 0.60800004 1.7426098e-38
0.065432385 -0.1858743 0.60800004 1.7333902e-38
0.066700004 -0.18618001 0.60900003 1.7333902e-38
0.067971431 -0.18648571 0.61000001 1.7334258e-38
0.069246665 -0.18679142 0.611 1.7242063e-38
0.070410475 -0.18679142 0.611 1.7333905e-38
0.071691439 -0.18709715 0.61200005 1.7333905e-38
0.072976194 -0.18740286 0.61300004 1.7149151e-38
0.074264765 -0.18770857 0.61400002 1.7149151e-38
0.075925715 -0.18893144 0.61800003 1.7057308e-38
0.077352382 -0.18954286 0.62 1.6780721e-38
0.078786671 -0.1901543 0.62200004 1.6504863e-38
0.079971433 -0.1901543 0.62200004 1.6597059e-38
0.081286669 -0.19046 0.62300003 1.6320836e-38
0.08247333 -0.19046 0.62300003 1.4569119e-38
0.083659999 -0.19046 0.62300003 1.3741877e-38
-0.032897141 -0.18410857 0.60600001 1.4016674e-38
-0.031638097 -0.18350096 0.60400003 9.316509e-39
-0.030487619 -0.18350096 0.60400003 9.2243134e-39
-0.029337144 -0.18350096 0.60400003 1.1246753e-38
-0.028186668 -0.18350096 0.60400003 1.4289209e-38
-0.027125714 -0.18410857 0.60600001 1.6133519e-38
-0.025971429 -0.18410857 0.60600001 1.9452562e-38
-0.024817143 -0.18410857 0.60600001 1.9731695e-38
-0.01268 -0.19261524 0.634 1.9824616e-38
-0.01143619 -0.19200762 0.63200003 1.8256214e-38
-0.010200001 -0.19140001 0.63000005 1.3369846e-38
-0.0089714285 -0.19079238 0.62800002 1.3186897e-38
-0.0077380952 -0.18988095 0.625 1.5491788e-38
-0.0065266667 -0.18927334 0.62300003 1.5859505e-38
-0.0053314292 -0.18896954 0.62200004 1.6043896e-38
-0.0041333335 -0.1883619 0.62 1.6135359e-38
-0.002947619 -0.18805809 0.61900002 1.6504142e-38
-0.0017685716 -0.18805809 0.61900002 1.6135362e-38
-0.00058857148 -0.1877543 0.61800003 1.6135362e-38
0.00058666669 -0.18714668 0.61600006 1.6135715e-38
0.0017542857 -0.18653905 0.61400002 1.6320106e-38
0.0029238097 -0.18653905 0.61400002 1.650343e-38
0.0040800003 -0.18593144 0.61200005 1.6134647e-38
0.005237143 -0.18562761 0.611 1.5766214e-38
0.0063800002 -0.18502001 0.60900003 1.5581822e-38
0.0075276191 -0.18471619 0.60800004 1.5581822e-38
0.0086857146 -0.18471619 0.60800004 1.5581822e-38
0.0098276203 -0.18441239 0.60700005 1.5582175e-38
0.010983811 -0.18441239 0.60700005 1.5674371e-38
0.01212 -0.18410857 0.60600001 1.5674018e-38
0.013274285 -0.18410857 0.60600001 1.5581822e-38
0.014380952 -0.18350096 0.60400003 1.5582178e-38
0.015531429 -0.18350096 0.60400003 1.5950961e-38
0.016654287 -0.18319716 0.60300004 1.576586e-38
0.017773336 -0.18289335 0.60200006 1.5858056e-38
0.018920001 -0.18289335 0.60200006 1.5950605e-38
0.020033333 -0.18258953 0.60100001 1.6227192e-38
0.021178095 -0.18258953 0.60100001 1.6227908e-38
0.022360003 -0.18289335 0.60200006 1.6320103e-38
0.023467619 -0.18258953 0.60100001 1.6320106e-38
0.02461238 -0.18258953 0.60100001 1.6412302e-38
0.025757143 -0.18258953 0.60100001 1.6504142e-38
0.026901904 -0.18258953 0.60100001 1.6688533e-38
0.028046668 -0.18258953 0.60100001 1.6688536e-38
0.029142857 -0.18228573 0.60000002 1.6780731e-38
0.030285714 -0.18228573 0.60000002 1.6872561e-38
0.031428572 -0.18228573 0.60000002 1.7056952e-38
0.032571428 -0.18228573 0.60000002 1.7149504e-38
0.033714287 -0.18228573 0.60000002 1.7333895e-38
0.034857146 -0.18228573 0.60000002 1.7425735e-38
0.036000002 -0.18228573 0.60000002 1.7425735e-38
0.037142858 -0.18228573 0.60000002 1.7425738e-38
0.038285714 -0.18228573 0.60000002 1.7517933e-38
0.039428573 -0.18228573 0.60000002 1.7517931e-38
0.040571429 -0.18228573 0.60000002 1.7425735e-38
0.041644763 -0.18198191 0.59900004 1.7426091e-38
0.042785715 -0.18198191 0.59900004 1.7702678e-38
0.044 -0.18228573 0.60000002 1.7702685e-38
0.045142859 -0.18228573 0.60000002 1.779488e-38
0.046285715 -0.18228573 0.60000002 1.7611205e-38
0.047428574 -0.18228573 0.60000002 1.7611205e-38
0.048652381 -0.18258953 0.60100001 1.751901e-38
0.049797144 -0.18258953 0.60100001 1.751901e-38
0.05111143 -0.18319716 0.60300004 1.7703041e-38
0.052173339 -0.18289335 0.60200006 1.7703041e-38
0.053320002 -0.18289335 0.60200006 1.7703041e-38
0.054557145 -0.18319716 0.60300004 1.7610845e-38
0.055705719 -0.18319716 0.60300004 1.7518294e-38
0.057137143 -0.18410857 0.60600001 1.7518294e-38
0.058291428 -0.18410857 0.60600001 1.7886716e-38
0.059445713 -0.18410857 0.60600001 1.7702325e-38
0.060600001 -0.18410857 0.60600001 1.7518649e-38
0.061856195 -0.18441239 0.60700005 1.7518649e-38
0.063012384 -0.18441239 0.60700005 1.7518649e-38
0.064274289 -0.18471619 0.60800004 1.7518649e-38
0.065432385 -0.18471619 0.60800004 1.7426454e-38
0.066700004 -0.18502001 0.60900003 1.7334258e-38
0.067971431 -0.18532382 0.61000001 1.7242425e-38
0.069133334 -0.18532382 0.61000001 1.7242425e-38
0.070410475 -0.18562761 0.611 1.7057318e-38
0.071808569 -0.18623525 0.61300004 1.7149514e-38
0.072976194 -0.18623525 0.61300004 1.7057671e-38
0.074385718 -0.18684286 0.61500001 1.7057671e-38
0.075680003 -0.18714668 0.61600006 1.6872924e-38
0.07747715 -0.18866573 0.62100005 1.6780728e-38
0.078786671 -0.18896954 0.62200004 1.6597059e-38
0.079971433 -0.18896954 0.62200004 1.6504863e-38
0.081286669 -0.18927334 0.62300003 1.6411946e-38
0.08247333 -0.18927334 0.62300003 1.4660229e-38
0.083659999 -0.18927334 0.62300003 1.3649328e-38
-0.032897141 -0.18295428 0.60600001 1.8072183e-38
-0.03174286 -0.18295428 0.60600001 1.3189107e-38
-0.030588571 -0.18295428 0.60600001 8.4871295e-39
-0.029434286 -0.18295428 0.60600001 9.2228378e-39
-0.028279999 -0.18295428 0.60600001 1.0790164e-38
-0.027170479 -0.18325621 0.60700005 1.3460196e-38
-0.025971429 -0.18295428 0.60600001 1.7609e-38
-0.024817143 -0.18295428 0.60600001 1.8992322e-38
-0.01264 -0.19080381 0.63200003 1.9917168e-38
-0.01143619 -0.19080381 0.63200003 1.8348773e-38
-0.010200001 -0.19020002 0.63000005 1.3185818e-38
-0.0089714285 -0.18959619 0.62800002 1.2911043e-38
-0.0077380952 -0.18869047 0.625 1.549252e-38
-0.0065266667 -0.18808667 0.62300003 1.6043896e-38
-0.0053314292 -0.18778478 0.62200004 1.6412679e-38
-0.0041333335 -0.18718095 0.62 1.6412302e-38
-0.002947619 -0.18687905 0.61900002 1.6596693e-38
-0.0017685716 -0.18687905 0.61900002 1.6504495e-38
-0.00058857148 -0.18657714 0.61800003 1.6504495e-38
0.00058666669 -0.18597335 0.61600006 1.6412299e-38
0.0017571428 -0.18567143 0.61500001 1.6688886e-38
0.0029238097 -0.18536952 0.61400002 1.6227555e-38
0.0040866667 -0.18506762 0.61300004 1.5950968e-38
0.0052457144 -0.18476573 0.61200005 1.5766577e-38
0.0063904761 -0.18416192 0.61000001 1.5582185e-38
0.0075400001 -0.18386 0.60900003 1.5489627e-38
0.0087000001 -0.18386 0.60900003 1.5581822e-38
0.0098438095 -0.18355811 0.60800004 1.5489977e-38
0.010983811 -0.18325621 0.60700005 1.5582173e-38
0.01212 -0.18295428 0.60600001 1.5674018e-38
0.013274285 -0.18295428 0.60600001 1.5581822e-38
0.014428572 -0.18295428 0.60600001 1.5857689e-38
0.015531429 -0.18235049 0.60400003 1.6410863e-38
0.016681906 -0.18235049 0.60400003 1.6041373e-38
0.017773336 -0.18174668 0.60200006 1.5949177e-38
0.018920001 -0.18174668 0.60200006 1.5950608e-38
0.020066667 -0.18174668 0.60200006 1.631939e-38
0.021213336 -0.18174668 0.60200006 1.6227908e-38
0.022360003 -0.18174668 0.60200006 1.6320103e-38
0.023506669 -0.18174668 0.60200006 1.6411583e-38
0.02461238 -0.18144476 0.60100001 1.6503779e-38
0.025757143 -0.18144476 0.60100001 1.6504142e-38
0.026946669 -0.18174668 0.60200006 1.6596337e-38
0.028046668 -0.18144476 0.60100001 1.6687817e-38
0.029142857 -0.18114287 0.60000002 1.6872208e-38
0.030285714 -0.18114287 0.60000002 1.6872208e-38
0.031428572 -0.18114287 0.60000002 1.6964404e-38
0.032571428 -0.18114287 0.60000002 1.6964404e-38
0.033714287 -0.18114287 0.60000002 1.7333186e-38
0.034857146 -0.18114287 0.60000002 1.7333539e-38
0.036000002 -0.18114287 0.60000002 1.7333539e-38
0.037142858 -0.18114287 0.60000002 1.7426098e-38
0.038285714 -0.18114287 0.60000002 1.7426098e-38
0.039428573 -0.18114287 0.60000002 1.7426451e-38
0.040571429 -0.18114287 0.60000002 1.7334255e-38
0.041714288 -0.18114287 0.60000002 1.733389e-38
0.042857144 -0.18114287 0.60000002 1.7610477e-38
0.044 -0.18114287 0.60000002 1.7702688e-38
0.045142859 -0.18114287 0.60000002 1.7610492e-38
0.046285715 -0.18114287 0.60000002 1.7426817e-38
0.047507618 -0.18144476 0.60100001 1.7519012e-38
0.048652381 -0.18144476 0.60100001 1.751901e-38
0.049797144 -0.18144476 0.60100001 1.751901e-38
0.05111143 -0.18204859 0.60300004 1.7702678e-38
0.052260004 -0.18204859 0.60300004 1.7794873e-38
0.053408574 -0.18204859 0.60300004 1.7794871e-38
0.054647624 -0.18235049 0.60400003 1.7887066e-38
0.055982858 -0.18295428 0.60600001 1.7518294e-38
0.057137143 -0.18295428 0.60600001 1.7518294e-38
0.058291428 -0.18295428 0.60600001 1.7610496e-38
0.059543811 -0.18325621 0.60700005 1.7518301e-38
0.060700003 -0.18325621 0.60700005 1.7518294e-38
0.061856195 -0.18325621 0.60700005 1.7518294e-38
0.063012384 -0.18325621 0.60700005 1.7517931e-38
0.064274289 -0.18355811 0.60800004 1.7517931e-38
0.065432385 -0.18355811 0.60800004 1.7333542e-38
0.066700004 -0.18386 0.60900003 1.7241346e-38
0.067971431 -0.18416192 0.61000001 1.7334258e-38
0.069133334 -0.18416192 0.61000001 1.7334258e-38
0.070525721 -0.18476573 0.61200005 1.7057318e-38
0.071925715 -0.18536952 0.61400002 1.7057318e-38
0.073214285 -0.18567143 0.61500001 1.7149504e-38
0.074506678 -0.18597335 0.61600006 1.6965113e-38
0.075680003 -0.18597335 0.61600006 1.687328e-38
0.07747715 -0.18748286 0.62100005 1.6688889e-38
0.078786671 -0.18778478 0.62200004 1.6320836e-38
0.0801 -0.18808667 0.62300003 1.6320836e-38
0.081286669 -0.18808667 0.62300003 1.5952403e-38
0.082605712 -0.18838857 0.62400001 1.410849e-38
0.083794288 -0.18838857 0.62400001 1.4018479e-38
-0.031795241 -0.18210001 0.60700005 1.6875487e-38
-0.030639049 -0.18210001 0.60700005 1.1528141e-38
-0.02948286 -0.18210001 0.60700005 8.3941772e-39
-0.028326668 -0.18210001 0.60700005 9.1317422e-39
-0.027215241 -0.18240002 0.60800004 1.2351653e-38
-0.026014287 -0.18210001 0.60700005 1.6500456e-38
-0.024858097 -0.18210001 0.60700005 1.7701211e-38
-0.023780001 -0.18270001 0.60900003 1.9913906e-38
-0.01264 -0.18960001 0.63200003 2.0193755e-38
-0.01143619 -0.18960001 0.63200003 1.862536e-38
-0.010216191 -0.18930002 0.63100004 1.3185818e-38
-0.008985715 -0.18870001 0.62900001 1.2726625e-38
-0.0077380952 -0.1875 0.625 1.5584689e-38
-0.0065371431 -0.18719999 0.62400001 1.6043899e-38
-0.0053314292 -0.1866 0.62200004 1.6412682e-38
-0.0041399999 -0.18630002 0.62100005 1.6320472e-38
-0.0029523808 -0.186 0.62 1.6597059e-38
-0.0017685716 -0.1857 0.61900002 1.6688533e-38
-0.00058952381 -0.1857 0.61900002 1.6504142e-38
0.00058857148 -0.18540001 0.61800003 1.6228276e-38
0.0017600001 -0.18480001 0.61600006 1.6412668e-38
0.0029238097 -0.1842 0.61400002 1.6043882e-38
0.0040866667 -0.18390001 0.61300004 1.5951687e-38
0.0052542859 -0.18390001 0.61300004 1.56751e-38
0.0064009526 -0.18329999 0.611 1.5398513e-38
0.0075523811 -0.18300001 0.61000001 1.4845342e-38
0.0087000001 -0.18270001 0.60900003 1.5398516e-38
0.0098438095 -0.18240002 0.60800004 1.5490696e-38
0.010983811 -0.18210001 0.60700005 1.5582892e-38
0.01214 -0.18210001 0.60700005 1.5674018e-38
0.013274285 -0.18179999 0.60600001 1.5674018e-38
0.014428572 -0.18179999 0.60600001 1.5857686e-38
0.015582857 -0.18179999 0.60600001 1.6042077e-38
0.016681906 -0.18120001 0.60400003 1.5857333e-38
0.017773336 -0.18060002 0.60200006 1.5949529e-38
0.018920001 -0.18060002 0.60200006 1.604208e-38
0.020100001 -0.18090001 0.60300004 1.6318667e-38
0.021248572 -0.18090001 0.60300004 1.5858765e-38
0.022360003 -0.18060002 0.60200006 1.6135352e-38
0.023506669 -0.18060002 0.60200006 1.6043163e-38
0.02461238 -0.1803 0.60100001 1.6411946e-38
0.025757143 -0.1803 0.60100001 1.6504142e-38
0.026946669 -0.18060002 0.60200006 1.6596337e-38
0.028046668 -0.1803 0.60100001 1.6687817e-38
0.029191429 -0.1803 0.60100001 1.6872208e-38
0.030285714 -0.17999999 0.60000002 1.6872561e-38
0.031428572 -0.17999999 0.60000002 1.6964757e-38
0.032571428 -0.17999999 0.60000002 1.696476e-38
0.033770476 -0.1803 0.60100001 1.7333542e-38
0.034857146 -0.17999999 0.60000002 1.7333539e-38
0.036000002 -0.17999999 0.60000002 1.7333539e-38
0.037204765 -0.1803 0.60100001 1.7426098e-38
0.038285714 -0.17999999 0.60000002 1.7426098e-38
0.039428573 -0.17999999 0.60000002 1.7426454e-38
0.040571429 -0.17999999 0.60000002 1.7426454e-38
0.041714288 -0.17999999 0.60000002 1.7518284e-38
0.042857144 -0.17999999 0.60000002 1.7610479e-38
0.044073332 -0.1803 0.60100001 1.7610489e-38
0.045218095 -0.1803 0.60100001 1.7610489e-38
0.046362858 -0.1803 0.60100001 1.751901e-38
0.047507618 -0.1803 0.60100001 1.751901e-38
0.048733339 -0.18060002 0.60200006 1.751901e-38
0.049880005 -0.18060002 0.60200006 1.751901e-38
0.051196195 -0.18120001 0.60400003 1.7610845e-38
0.052346669 -0.18120001 0.60400003 1.7610845e-38
0.053497147 -0.18120001 0.60400003 1.7610842e-38
0.054828569 -0.18179999 0.60600001 1.7610842e-38
0.055982858 -0.18179999 0.60600001 1.7518294e-38
0.057231434 -0.18210001 0.60700005 1.7518294e-38
0.058387626 -0.18210001 0.60700005 1.7610492e-38
0.059543811 -0.18210001 0.60700005 1.7610492e-38
0.060700003 -0.18210001 0.60700005 1.7518294e-38
0.061856195 -0.18210001 0.60700005 1.7518294e-38
0.063116193 -0.18240002 0.60800004 1.7425738e-38
0.064274289 -0.18240002 0.60800004 1.7425738e-38
0.065540001 -0.18270001 0.60900003 1.7425738e-38
0.066809528 -0.18300001 0.61000001 1.7333542e-38
0.068082854 -0.18329999 0.611 1.7333542e-38
0.069246665 -0.18329999 0.611 1.7333542e-38
0.070640959 -0.18390001 0.61300004 1.7241346e-38
0.07204286 -0.18450001 0.61500001 1.7241346e-38
0.073333338 -0.18480001 0.61600006 1.7056952e-38
0.074506678 -0.18480001 0.61600006 1.6964757e-38
0.075925715 -0.18540001 0.61800003 1.6781084e-38
0.07747715 -0.18630002 0.62100005 1.6781084e-38
0.078786671 -0.1866 0.62200004 1.6320832e-38
0.0801 -0.1869 0.62300003 1.6320832e-38
0.081286669 -0.1869 0.62300003 1.6136794e-38
0.082738094 -0.1875 0.625 1.4569468e-38
-0.031900004 -0.18154 0.60900003 1.9732433e-38
-0.03074 -0.18154 0.60900003 1.5768025e-38
-0.029531429 -0.18124191 0.60800004 1.0332121e-38
-0.028373335 -0.18124191 0.60800004 8.2116216e-39
-0.02726 -0.18154 0.60900003 9.2228406e-39
-0.0261 -0.18154 0.60900003 1.1527731e-38
-0.024940001 -0.18154 0.60900003 1.4750585e-38
-0.023780001 -0.18154 0.60900003 1.8807192e-38
-0.022620002 -0.18154 0.60900003 1.9545158e-38
-0.01143619 -0.1883962 0.63200003 1.9085622e-38
-0.010216191 -0.1880981 0.63100004 1.3461689e-38
-0.008985715 -0.18750191 0.62900001 1.2818481e-38
-0.0077257147 -0.18601142 0.62400001 1.558435e-38
-0.0065371431 -0.18601142 0.62400001 1.6227934e-38
-0.0053314292 -0.18541524 0.62200004 1.6688913e-38
-0.0041399999 -0.18511716 0.62100005 1.6688536e-38
-0.0029571431 -0.18511716 0.62100005 1.6688536e-38
-0.0017714286 -0.18481904 0.62 1.668854e-38
-0.00058952381 -0.18452096 0.61900002 1.6596344e-38
0.00058857148 -0.18422286 0.61800003 1.6504863e-38
0.0017600001 -0.18362668 0.61600006 1.6597059e-38
0.0029238097 -0.18303049 0.61400002 1.6412302e-38
0.0040933336 -0.18303049 0.61400002 1.6227911e-38
0.0052542859 -0.1827324 0.61300004 1.5766579e-38
0.006411429 -0.18243429 0.61200005 1.5582188e-38
0.0075647617 -0.18213618 0.611 1.5397794e-38
0.0087142866 -0.1818381 0.61000001 1.548999e-38
0.0098600006 -0.18154 0.60900003 1.5582173e-38
0.011001905 -0.18124191 0.60800004 1.5674368e-38
0.01214 -0.18094382 0.60700005 1.5674371e-38
0.013274285 -0.18064572 0.60600001 1.5674371e-38
0.014428572 -0.18064572 0.60600001 1.5857683e-38
0.015582857 -0.18064572 0.60600001 1.5765488e-38
0.016681906 -0.18004954 0.60400003 1.5949163e-38
0.017773336 -0.17945336 0.60200006 1.6041359e-38
0.018920001 -0.17945336 0.60200006 1.604208e-38
0.020100001 -0.17975144 0.60300004 1.6410863e-38
0.021248572 -0.17975144 0.60300004 1.6134996e-38
0.022360003 -0.17945336 0.60200006 1.6411583e-38
0.023506669 -0.17945336 0.60200006 1.631939e-38
0.024653334 -0.17945336 0.60200006 1.6503781e-38
0.025800001 -0.17945336 0.60200006 1.6411946e-38
0.026946669 -0.17945336 0.60200006 1.6504142e-38
0.028046668 -0.17915525 0.60100001 1.6687817e-38
0.029191429 -0.17915525 0.60100001 1.7056599e-38
0.03033619 -0.17915525 0.60100001 1.6964757e-38
0.031428572 -0.17885715 0.60000002 1.7056952e-38
0.032571428 -0.17885715 0.60000002 1.7149151e-38
0.033770476 -0.17915525 0.60100001 1.7333542e-38
0.034915239 -0.17915525 0.60100001 1.7333542e-38
0.036059998 -0.17915525 0.60100001 1.7333542e-38
0.037204765 -0.17915525 0.60100001 1.7333542e-38
0.038349524 -0.17915525 0.60100001 1.7517933e-38
0.039494287 -0.17915525 0.60100001 1.7517933e-38
0.04063905 -0.17915525 0.60100001 1.7517933e-38
0.04178381 -0.17915525 0.60100001 1.7518287e-38
0.042928573 -0.17915525 0.60100001 1.7702678e-38
0.044073332 -0.17915525 0.60100001 1.7610845e-38
0.045218095 -0.17915525 0.60100001 1.7610845e-38
0.046362858 -0.17915525 0.60100001 1.751901e-38
0.047586668 -0.17945336 0.60200006 1.7426814e-38
0.048733339 -0.17945336 0.60200006 1.7518294e-38
0.04996286 -0.17975144 0.60300004 1.7610489e-38
0.051196195 -0.18004954 0.60400003 1.7610845e-38
0.052346669 -0.18004954 0.60400003 1.7610845e-38
0.053497147 -0.18004954 0.60400003 1.7702322e-38
0.054828569 -0.18064572 0.60600001 1.7702322e-38
0.055982858 -0.18064572 0.60600001 1.7610129e-38
0.057231434 -0.18094382 0.60700005 1.7702325e-38
0.058387626 -0.18094382 0.60700005 1.7610492e-38
0.059543811 -0.18094382 0.60700005 1.7518296e-38
0.060700003 -0.18094382 0.60700005 1.7610129e-38
0.061958101 -0.18124191 0.60800004 1.7517933e-38
0.063116193 -0.18124191 0.60800004 1.7425738e-38
0.064380005 -0.18154 0.60900003 1.7425738e-38
0.065540001 -0.18154 0.60900003 1.7425738e-38
0.066809528 -0.1818381 0.61000001 1.7333542e-38
0.068082854 -0.18213618 0.611 1.7241346e-38
0.069246665 -0.18213618 0.611 1.7241346e-38
0.070756197 -0.18303049 0.61400002 1.7241344e-38
0.07204286 -0.18332858 0.61500001 1.7149148e-38
0.073333338 -0.18362668 0.61600006 1.696476e-38
0.074506678 -0.18362668 0.61600006 1.6872564e-38
0.076048575 -0.18452096 0.61900002 1.6781084e-38
0.07747715 -0.18511716 0.62100005 1.687328e-38
0.078786671 -0.18541524 0.62200004 1.6412665e-38
0.0801 -0.18571334 0.62300003 1.6412665e-38
0.081286669 -0.18571334 0.62300003 1.6136794e-38
0.082738094 -0.18630952 0.625 1.4661664e-38
-0.03074 -0.18038 0.60900003 1.8809739e-38
-0.029580001 -0.18038 0.60900003 1.4202555e-38
-0.028420001 -0.18038 0.60900003 1.0791317e-38
-0.027304761 -0.18067619 0.61000001 8.3023108e-39
-0.026142858 -0.18067619 0.61000001 8.4867021e-39
-0.024980953 -0.18067619 0.61000001 1.2811521e-38
-0.023780001 -0.18038 0.60900003 1.7790085e-38
-0.022620002 -0.18038 0.60900003 1.8715019e-38
-0.011472382 -0.18778476 0.634 1.9362562e-38
-0.010232382 -0.18719238 0.63200003 1.392302e-38
-0.008985715 -0.18630381 0.62900001 1.2726609e-38
-0.0077257147 -0.18482287 0.62400001 1.5769065e-38
-0.0065371431 -0.18482287 0.62400001 1.6136102e-38
-0.0053400001 -0.18452667 0.62300003 1.6504884e-38
-0.0041466667 -0.18423049 0.62200004 1.6688889e-38
-0.0029571431 -0.1839343 0.62100005 1.6688889e-38
-0.0017714286 -0.1836381 0.62 1.6780735e-38
-0.00058952381 -0.18334191 0.61900002 1.668854e-38
0.00058857148 -0.18304573 0.61800003 1.6596704e-38
0.0017600001 -0.18245335 0.61600006 1.6596704e-38
0.0029285715 -0.18215714 0.61500001 1.6320466e-38
0.0040933336 -0.18186095 0.61400002 1.5951684e-38
0.0052542859 -0.18156476 0.61300004 1.5582907e-38
0.006411429 -0.18126859 0.61200005 1.5490711e-38
0.0075771436 -0.18126859 0.61200005 1.5581825e-38
0.0087142866 -0.18067619 0.61000001 1.5581825e-38
