# .PCD v0.7 - Point Cloud Data file format
VERSION 0.7
FIELDS x y z rgb
SIZE 4 4 4 4
TYPE F F F F
COUNT 1 1 1 1
WIDTH 935
HEIGHT 1
VIEWPOINT 0 0 0 1 0 0 0
POINTS 935
DATA ascii
-0.012728572 -0.27578571 0.89100003 9.6816552e-39
-0.011031428 -0.27578571 0.89100003 9.5894595e-39
-0.016086668 -0.27347335 0.88900006 1.0417134e-38
-0.014393334 -0.27347335 0.88900006 1.0417134e-38
-0.012700001 -0.27347335 0.88900006 1.0234177e-38
-0.011006667 -0.27347335 0.88900006 1.0695155e-38
-0.0093133338 -0.27347335 0.88900006 1.0420764e-38
-0.0076200003 -0.27347335 0.88900006 1.1711503e-38
-0.019429525 -0.27116859 0.88700002 9.1353954e-39
-0.01774 -0.27116859 0.88700002 1.0610525e-38
-0.016086668 -0.27178001 0.88900006 1.2082815e-38
-0.014393334 -0.27178001 0.88900006 1.2728183e-38
-0.012700001 -0.27178001 0.88900006 1.2913283e-38
-0.011006667 -0.27178001 0.88900006 1.3927426e-38
-0.0093133338 -0.27178001 0.88900006 1.5127385e-38
-0.0076200003 -0.27178001 0.88900006 1.6141522e-38
-0.0059266672 -0.27178001 0.88900006 1.6419898e-38
0.00084666669 -0.27178001 0.88900006 1.5682344e-38
0.0025400002 -0.27178001 0.88900006 1.3561855e-38
0.0042333333 -0.27178001 0.88900006 1.079605e-38
0.0059133335 -0.27116859 0.88700002 9.2287443e-39
0.0076028574 -0.27116859 0.88700002 7.936862e-39
0.0092923809 -0.27116859 0.88700002 7.936862e-39
0.010981904 -0.27116859 0.88700002 8.5785684e-39
0.012671429 -0.27116859 0.88700002 9.3161335e-39
-0.021119049 -0.26947904 0.88700002 1.2912873e-38
-0.019429525 -0.26947904 0.88700002 1.2363352e-38
-0.01774 -0.26947904 0.88700002 1.2363352e-38
-0.016050477 -0.26947904 0.88700002 1.2642087e-38
-0.014393334 -0.27008668 0.88900006 1.2826476e-38
-0.012700001 -0.27008668 0.88900006 1.2734999e-38
-0.011006667 -0.27008668 0.88900006 1.2734999e-38
-0.0093133338 -0.27008668 0.88900006 1.2922616e-38
-0.0076200003 -0.27008668 0.88900006 1.366017e-38
-0.0059266672 -0.27008668 0.88900006 1.3019474e-38
-0.0042333333 -0.27008668 0.88900006 1.3111668e-38
0.0008447619 -0.26947904 0.88700002 1.2742891e-38
0.0025342857 -0.26947904 0.88700002 1.1636556e-38
0.0042238096 -0.26947904 0.88700002 1.2000674e-38
0.0059000002 -0.26887143 0.88500005 1.1355314e-38
0.0075857146 -0.26887143 0.88500005 1.2455546e-38
0.0092714289 -0.26887143 0.88500005 1.0980433e-38
0.010957144 -0.26887143 0.88500005 1.1709383e-38
0.012642858 -0.26887143 0.88500005 1.1248412e-38
0.014328572 -0.26887143 0.88500005 1.115544e-38
-0.021119049 -0.26778954 0.88700002 1.5683779e-38
-0.019429525 -0.26778954 0.88700002 1.6607874e-38
-0.01774 -0.26778954 0.88700002 1.5870317e-38
-0.016050477 -0.26778954 0.88700002 1.6238738e-38
-0.014393334 -0.26839334 0.88900006 1.6791904e-38
-0.012728572 -0.26899716 0.89100003 1.6419898e-38
-0.011006667 -0.26839334 0.88900006 1.4483799e-38
-0.0093133338 -0.26839334 0.88900006 1.3286012e-38
-0.0076200003 -0.26839334 0.88900006 1.411576e-38
-0.0059266672 -0.26839334 0.88900006 1.4025001e-38
-0.0042333333 -0.26839334 0.88900006 1.3932807e-38
-0.0025457144 -0.26899716 0.89100003 1.4304453e-38
-0.00084666669 -0.26839334 0.88900006 1.5871755e-38
0.0008447619 -0.26778954 0.88700002 1.5781355e-38
0.0025342857 -0.26778954 0.88700002 1.5228188e-38
0.0042142859 -0.26718572 0.88500005 1.4860489e-38
0.0059000002 -0.26718572 0.88500005 1.4768294e-38
0.0075857146 -0.26718572 0.88500005 1.5687367e-38
0.0092714289 -0.26718572 0.88500005 1.6056144e-38
0.010957144 -0.26718572 0.88500005 1.6696122e-38
0.012642858 -0.26718572 0.88500005 1.4575631e-38
0.014328572 -0.26718572 0.88500005 1.3371749e-38
-0.022808572 -0.26609999 0.88700002 1.034333e-38
-0.02107143 -0.26550001 0.88500005 1.3570128e-38
-0.019385716 -0.26550001 0.88500005 1.394321e-38
-0.017700002 -0.26550001 0.88500005 1.3758821e-38
-0.016050477 -0.26609999 0.88700002 1.5047029e-38
-0.014393334 -0.2667 0.88900006 1.4493863e-38
-0.012728572 -0.26730001 0.89100003 1.4119706e-38
-0.011031428 -0.26730001 0.89100003 1.1814827e-38
-0.0093342857 -0.26730001 0.89100003 1.0701289e-38
-0.0076371427 -0.26730001 0.89100003 1.1807637e-38
-0.0059400005 -0.26730001 0.89100003 1.2635595e-38
-0.004242857 -0.26730001 0.89100003 1.2266813e-38
-0.0025400002 -0.2667 0.88900006 1.0339321e-38
-0.0008447619 -0.26609999 0.88700002 1.3012994e-38
0.00084285717 -0.26550001 0.88500005 1.5319307e-38
0.0025200001 -0.26460001 0.88200003 1.5042725e-38
0.0042000003 -0.26460001 0.88200003 1.3575509e-38
0.0058800001 -0.26460001 0.88200003 1.3114538e-38
0.0075857146 -0.26550001 0.88500005 1.2379136e-38
0.0092714289 -0.26550001 0.88500005 1.2563525e-38
0.010957144 -0.26550001 0.88500005 1.4215846e-38
0.012642858 -0.26550001 0.88500005 1.2648531e-38
-0.022757143 -0.2638143 0.88500005 9.7923171e-39
-0.02107143 -0.2638143 0.88500005 1.3019115e-38
-0.019385716 -0.2638143 0.88500005 1.3758821e-38
-0.017700002 -0.2638143 0.88500005 1.3851016e-38
-0.016014285 -0.2638143 0.88500005 1.504416e-38
-0.014360953 -0.2644105 0.88700002 9.6046272e-39
-0.012728572 -0.26560286 0.89100003 3.7099055e-39
-0.011031428 -0.26560286 0.89100003 6.1991875e-39
-0.0057466668 -0.25695813 0.86200005 8.8573161e-39
-0.0041047623 -0.25695813 0.86200005 7.7509686e-39
-0.0025400002 -0.26500669 0.88900006 3.7073018e-39
-0.00084285717 -0.2638143 0.88500005 8.7780615e-39
0.00083809526 -0.2623238 0.88000005 1.0529871e-38
0.0025142857 -0.2623238 0.88000005 1.4125446e-38
0.0041904761 -0.2623238 0.88000005 1.4495658e-38
0.0058666668 -0.2623238 0.88000005 1.3389317e-38
0.0075600003 -0.26291999 0.88200003 1.2654284e-38
0.0092190476 -0.2623238 0.88000005 1.2654284e-38
0.010895238 -0.2623238 0.88000005 1.4124011e-38
0.012642858 -0.2638143 0.88500005 1.2464499e-38
-0.022757143 -0.26212859 0.88500005 1.2369092e-38
-0.021000002 -0.26124001 0.88200003 1.3936394e-38
-0.019320002 -0.26124001 0.88200003 1.3482597e-38
-0.01764 -0.26124001 0.88200003 1.3482597e-38
-0.01596 -0.26124001 0.88200003 1.5225319e-38
-0.014328572 -0.26212859 0.88500005 7.3887007e-39
-0.012285715 -0.25472379 0.86000001 5.3553003e-39
-0.010647619 -0.25472379 0.86000001 8.674343e-39
-0.0090095233 -0.25472379 0.86000001 9.9607826e-39
-0.0073714289 -0.25472379 0.86000001 1.0052978e-38
-0.0057466668 -0.2553162 0.86200005 1.0237355e-38
-0.0041047623 -0.2553162 0.86200005 8.4856385e-39
-0.0025342857 -0.26272094 0.88700002 6.4612317e-39
-0.00084285717 -0.26212859 0.88500005 7.5675792e-39
0.00083619048 -0.26005524 0.87800002 1.0707781e-38
0.0025085714 -0.26005524 0.87800002 1.5317514e-38
0.0041904761 -0.26064762 0.88000005 1.5048106e-38
0.0058666668 -0.26064762 0.88000005 1.3757374e-38
0.0075428574 -0.26064762 0.88000005 1.2378419e-38
0.0092190476 -0.26064762 0.88000005 1.2470613e-38
0.010870476 -0.26005524 0.87800002 1.4216923e-38
0.012542857 -0.26005524 0.87800002 1.3110585e-38
0.014328572 -0.26212859 0.88500005 1.2548458e-38
-0.024304764 -0.25897145 0.88000005 1.8076089e-38
-0.022628574 -0.25897145 0.88000005 1.6792621e-38
-0.020952383 -0.25897145 0.88000005 1.5594087e-38
-0.019276192 -0.25897145 0.88000005 1.412724e-38
-0.017600002 -0.25897145 0.88000005 1.4496016e-38
-0.015923811 -0.25897145 0.88000005 1.6697916e-38
-0.01424762 -0.25897145 0.88000005 8.4925119e-39
-0.012285715 -0.2530857 0.86000001 2.4108093e-39
-0.010622857 -0.25249714 0.85800004 5.6376563e-39
-0.0089885723 -0.25249714 0.85800004 7.9328249e-39
-0.0073542856 -0.25249714 0.85800004 8.1172161e-39
-0.0057333331 -0.2530857 0.86000001 7.6565911e-39
-0.0040952382 -0.2530857 0.86000001 6.9190261e-39
-0.0024571428 -0.2530857 0.86000001 5.2627515e-39
-0.00083619048 -0.25838286 0.87800002 6.0925122e-39
0.00083619048 -0.25838286 0.87800002 5.2761788e-39
0.0025085714 -0.25838286 0.87800002 1.4034687e-38
0.0041809524 -0.25838286 0.87800002 1.6427432e-38
0.005853333 -0.25838286 0.87800002 1.5044503e-38
0.0075257146 -0.25838286 0.87800002 1.2930867e-38
0.0091980947 -0.25838286 0.87800002 1.2930867e-38
0.010870476 -0.25838286 0.87800002 1.45857e-38
0.012500001 -0.25750002 0.87500006 1.3571556e-38
0.014166667 -0.25750002 0.87500006 1.31931e-38
-0.024304764 -0.25729525 0.88000005 1.9087042e-38
-0.022577144 -0.2567105 0.87800002 1.7161757e-38
-0.020904763 -0.2567105 0.87800002 1.5410046e-38
-0.019232381 -0.2567105 0.87800002 1.4126522e-38
-0.01756 -0.2567105 0.87800002 1.4679687e-38
-0.015833335 -0.25583336 0.87500006 1.7801736e-38
-0.013956192 -0.25203237 0.86200005 9.5963329e-39
-0.012285715 -0.25144765 0.86000001 5.8144806e-39
-0.010622857 -0.25086287 0.85800004 6.9208281e-39
-0.0089885723 -0.25086287 0.85800004 7.6555121e-39
-0.0073542856 -0.25086287 0.85800004 7.7477077e-39
-0.0057333331 -0.25144765 0.86000001 7.1026915e-39
-0.004085714 -0.25086287 0.85800004 7.3792784e-39
-0.0024514287 -0.25086287 0.85800004 6.9190233e-39
-0.00082761905 -0.25407907 0.86900002 6.3658495e-39
0.00083333335 -0.25583336 0.87500006 7.479446e-39
0.0025000002 -0.25583336 0.87500006 1.5961438e-38
0.0041809524 -0.2567105 0.87800002 1.5416524e-38
0.005853333 -0.2567105 0.87800002 1.4125793e-38
0.0075257146 -0.2567105 0.87800002 1.3114897e-38
0.0091980947 -0.2567105 0.87800002 1.3207091e-38
0.010833334 -0.25583336 0.87500006 1.4953759e-38
0.012500001 -0.25583336 0.87500006 1.366303e-38
0.014166667 -0.25583336 0.87500006 1.3377848e-38
-0.022577144 -0.25503811 0.87800002 1.2093944e-38
-0.020904763 -0.25503811 0.87800002 1.135639e-38
-0.019232381 -0.25503811 0.87800002 1.0899007e-38
-0.01756 -0.25503811 0.87800002 1.1452172e-38
-0.015833335 -0.25416669 0.87500006 1.4483461e-38
-0.013923809 -0.24980953 0.86000001 8.85954e-39
-0.012257144 -0.24922857 0.85800004 4.6177941e-39
-0.010622857 -0.24922857 0.85800004 4.7099897e-39
-0.0089885723 -0.24922857 0.85800004 5.5350098e-39
-0.0073542856 -0.24922857 0.85800004 5.5350098e-39
-0.0057200002 -0.24922857 0.85800004 6.0878207e-39
-0.0040761908 -0.24864763 0.85600007 7.2863639e-39
-0.0024457145 -0.24864763 0.85600007 5.4450086e-39
-0.00082571432 -0.25184289 0.86700004 3.5089004e-39
0.00082952384 -0.25300479 0.87100005 3.152368e-39
0.0024885715 -0.25300479 0.87100005 1.1265583e-38
0.0041809524 -0.25503811 0.87800002 1.577705e-38
0.005853333 -0.25503811 0.87800002 1.5131689e-38
0.0075257146 -0.25503811 0.87800002 1.4307323e-38
0.0091980947 -0.25503811 0.87800002 1.4491712e-38
0.010833334 -0.25416669 0.87500006 1.5504054e-38
0.012500001 -0.25416669 0.87500006 1.4674301e-38
0.014166667 -0.25416669 0.87500006 1.4666056e-38
-0.024249524 -0.2533657 0.87800002 9.3212034e-39
-0.022577144 -0.2533657 0.87800002 3.3483747e-39
-0.020904763 -0.2533657 0.87800002 4.3625266e-39
-0.019232381 -0.2533657 0.87800002 5.646406e-39
-0.01756 -0.2533657 0.87800002 6.1073842e-39
-0.015833335 -0.25250003 0.87500006 9.0468515e-39
-0.013923809 -0.24817145 0.86000001 6.3731783e-39
-0.012257144 -0.24759428 0.85800004 9.4146518e-40
-0.010622857 -0.24759428 0.85800004 1.2180521e-39
-0.0089885723 -0.24759428 0.85800004 4.1495446e-39
-0.0073542856 -0.24759428 0.85800004 4.3339359e-39
-0.0057200002 -0.24759428 0.85800004 4.7030715e-39
-0.0040761908 -0.24701715 0.85600007 5.8094191e-39
-0.0024457145 -0.24701715 0.85600007 5.4421009e-39
-0.00082095241 -0.24874857 0.86200005 2.9528189e-39
0.00082952384 -0.25134572 0.87100005 2.8423658e-40
0.0024885715 -0.25134572 0.87100005 9.9647777e-39
0.0041809524 -0.2533657 0.87800002 9.8823589e-39
0.005853333 -0.2533657 0.87800002 1.0251136e-38
0.0075257146 -0.2533657 0.87800002 1.0713183e-38
0.0091666672 -0.25250003 0.87500006 1.0805377e-38
0.010808571 -0.25192288 0.87300003 1.1909556e-38
0.012442858 -0.25134572 0.87100005 1.1725167e-38
0.014101906 -0.25134572 0.87100005 1.3467172e-38
-0.024249524 -0.25169334 0.87800002 1.8114585e-41
-0.022577144 -0.25169334 0.87800002 4.7330958e-40
-0.020904763 -0.25169334 0.87800002 6.9294209e-42
-0.019232381 -0.25169334 0.87800002 9.6229968e-41
-0.01756 -0.25169334 0.87800002 3.6742046e-42
-0.01588762 -0.25169334 0.87800002 9.3699223e-41
-0.014134286 -0.25026 0.87300003 4.2319214e-43
-0.012471429 -0.25026 0.87300003 8.3737813e-40
-0.010647619 -0.24653335 0.86000001 2.5890951e-39
-0.0090095233 -0.24653335 0.86000001 3.3190833e-39
-0.0073714289 -0.24653335 0.86000001 3.3190833e-39
-0.0057333331 -0.24653335 0.86000001 3.410888e-39
-0.0040761908 -0.24538668 0.85600007 3.5952792e-39
-0.0024457145 -0.24538668 0.85600007 3.1361158e-39
-0.00082095241 -0.24710667 0.86200005 2.0297682e-39
0.00083333335 -0.25083336 0.87500006 1.8662633e-40
0.0025000002 -0.25083336 0.87500006 1.5148036e-42
0.0041666669 -0.25083336 0.87500006 1.8558236e-40
0.0058333338 -0.25083336 0.87500006 1.8558236e-40
0.0075000003 -0.25083336 0.87500006 1.8737743e-40
0.0091666672 -0.25083336 0.87500006 6.4835558e-40
0.010808571 -0.25026 0.87300003 1.8494057e-40
0.012442858 -0.24968669 0.87100005 6.2698521e-39
0.014101906 -0.24968669 0.87100005 9.1351039e-39
-0.024249524 -0.25002095 0.87800002 1.944502e-39
-0.022577144 -0.25002095 0.87800002 3.6029317e-39
-0.020904763 -0.25002095 0.87800002 2.2199973e-39
-0.019232381 -0.25002095 0.87800002 2.5815897e-39
-0.01756 -0.25002095 0.87800002 2.028416e-39
-0.01588762 -0.25002095 0.87800002 1.7511228e-39
-0.014166667 -0.2491667 0.87500006 4.1482092e-39
-0.012471429 -0.24859715 0.87300003 6.2679226e-39
-0.01078381 -0.24802764 0.87100005 4.0552274e-39
-0.0090514291 -0.24603428 0.86400002 3.1343011e-39
-0.0074057141 -0.24603428 0.86400002 3.410888e-39
-0.0057600001 -0.24603428 0.86400002 3.5934814e-39
-0.004114286 -0.24603428 0.86400002 3.8700683e-39
-0.002477143 -0.24688856 0.86700004 3.9615604e-39
-0.00082952384 -0.24802764 0.87100005 3.5005823e-39
0.00083333335 -0.2491667 0.87500006 1.3833464e-39
0.0025000002 -0.2491667 0.87500006 1.8480324e-40
0.0041666669 -0.2491667 0.87500006 8.5479206e-44
0.0058333338 -0.2491667 0.87500006 9.1922377e-41
0.0075000003 -0.2491667 0.87500006 1.1911037e-43
0.0091666672 -0.2491667 0.87500006 2.756298e-40
0.010808571 -0.24859715 0.87300003 1.8523204e-40
0.012442858 -0.24802764 0.87100005 4.3340354e-39
0.014101906 -0.24802764 0.87100005 1.0143799e-38
-0.027594287 -0.24834856 0.87800002 1.1895419e-38
-0.025921905 -0.24834856 0.87800002 8.764773e-39
-0.024304764 -0.2489143 0.88000005 5.6301216e-39
-0.022577144 -0.24834856 0.87800002 6.9201695e-39
-0.020904763 -0.24834856 0.87800002 9.040669e-39
-0.019232381 -0.24834856 0.87800002 1.0327417e-38
-0.01756 -0.24834856 0.87800002 1.2079134e-38
-0.015923811 -0.2489143 0.88000005 1.2720903e-38
-0.014215238 -0.24834856 0.87800002 1.299749e-38
-0.012542857 -0.24834856 0.87800002 1.0140841e-38
-0.010870476 -0.24834856 0.87800002 3.9637339e-39
-0.0074314289 -0.24523716 0.86700004 2.9492036e-39
-0.0057800002 -0.24523716 0.86700004 3.4087398e-39
-0.0041285716 -0.24523716 0.86700004 3.9619136e-39
-0.002477143 -0.24523716 0.86700004 3.9615604e-39
-0.00082952384 -0.24636859 0.87100005 3.4083867e-39
0.00083333335 -0.24750003 0.87500006 4.9735348e-39
0.0025085714 -0.24834856 0.87800002 9.7677075e-39
0.0041809524 -0.24834856 0.87800002 1.1337911e-38
0.005853333 -0.24834856 0.87800002 1.1706694e-38
0.0075257146 -0.24834856 0.87800002 9.960756e-39
0.0091980947 -0.24834856 0.87800002 6.6417133e-39
0.010870476 -0.24834856 0.87800002 4.4359392e-39
0.012542857 -0.24834856 0.87800002 3.6061785e-39
-0.027594287 -0.24667619 0.87800002 1.4937525e-38
-0.025921905 -0.24667619 0.87800002 9.9651308e-39
-0.024304764 -0.2472381 0.88000005 4.1568062e-39
-0.022628574 -0.2472381 0.88000005 4.3419415e-39
-0.020952383 -0.2472381 0.88000005 6.0936585e-39
-0.019276192 -0.2472381 0.88000005 8.0228919e-39
-0.017600002 -0.2472381 0.88000005 1.0788761e-38
-0.015923811 -0.2472381 0.88000005 1.1432673e-38
-0.01424762 -0.2472381 0.88000005 1.0787303e-38
-0.012542857 -0.24667619 0.87800002 9.5869652e-39
-0.010870476 -0.24667619 0.87800002 3.1332711e-39
-0.0074485713 -0.24414763 0.86900002 2.4864276e-39
-0.0057933335 -0.24414763 0.86900002 2.9459442e-39
-0.0041380953 -0.24414763 0.86900002 3.3147267e-39
-0.0024828573 -0.24414763 0.86900002 3.5931282e-39
-0.00082952384 -0.24470952 0.87100005 3.2243457e-39
0.0041904761 -0.2472381 0.88000005 1.1890748e-38
0.0058666668 -0.2472381 0.88000005 1.1798552e-38
0.0075600003 -0.24779999 0.88200003 1.0697968e-38
0.0092400005 -0.24779999 0.88200003 7.6555121e-39
-0.027657144 -0.24556193 0.88000005 1.5582889e-38
-0.025980955 -0.24556193 0.88000005 1.2540828e-38
-0.024360001 -0.24611999 0.88200003 3.2290695e-39
-0.022680001 -0.24611999 0.88200003 9.2821169e-40
-0.021000002 -0.24611999 0.88200003 1.9064666e-40
-0.019385716 -0.24695717 0.88500005 4.6139293e-40
-0.017700002 -0.24695717 0.88500005 4.6139293e-40
-0.016014285 -0.24695717 0.88500005 7.3475544e-40
-0.014328572 -0.24695717 0.88500005 7.3475544e-40
-0.012671429 -0.24751526 0.88700002 1.5659216e-39
-0.0074657151 -0.24305049 0.87100005 2.4864276e-39
-0.0058066668 -0.24305049 0.87100005 2.2116035e-39
-0.0041476195 -0.24305049 0.87100005 2.7647773e-39
-0.0024885715 -0.24305049 0.87100005 3.3168945e-39
-0.029333334 -0.24388573 0.88000005 1.5120471e-38
-0.027657144 -0.24388573 0.88000005 1.558145e-38
-0.025980955 -0.24388573 0.88000005 1.2356797e-38
-0.024442857 -0.24527143 0.88500005 2.1230821e-39
-0.022757143 -0.24527143 0.88500005 1.6599712e-39
-0.021119049 -0.24582572 0.88700002 1.1067974e-39
-0.019473333 -0.24638 0.88900006 1.2882529e-39
-0.01778 -0.24638 0.88900006 1.1960573e-39
-0.016086668 -0.24638 0.88900006 1.0102437e-39
-0.014393334 -0.24638 0.88900006 1.0102437e-39
-0.012700001 -0.24638 0.88900006 1.6563166e-39
-0.029333334 -0.24220954 0.88000005 1.4752045e-38
-0.027657144 -0.24220954 0.88000005 1.4659849e-38
-0.026040001 -0.24276 0.88200003 1.2264224e-38
-0.024442857 -0.24358572 0.88500005 7.3977068e-40
-0.022808572 -0.2441362 0.88700002 1.8481305e-40
-0.021119049 -0.2441362 0.88700002 1.198965e-39
-0.019473333 -0.24468668 0.88900006 2.2098407e-39
-0.017820001 -0.24523716 0.89100003 2.7630145e-39
-0.016122857 -0.24523716 0.89100003 3.0370832e-39
-0.014425715 -0.24523716 0.89100003 2.7604963e-39
-0.027720001 -0.24108 0.88200003 1.5029718e-38
-0.026040001 -0.24108 0.88200003 1.2449699e-38
-0.024442857 -0.24190001 0.88500005 3.4145272e-39
-0.022860002 -0.24299335 0.88900006 5.5432985e-40
-0.021166669 -0.24299335 0.88900006 1.3840905e-39
-0.019517142 -0.24354 0.89100003 2.5750134e-39
-0.017880002 -0.24436 0.89400005 3.5891654e-39
-0.016177142 -0.24436 0.89400005 3.7735917e-39
-0.014474287 -0.24436 0.89400005 3.681396e-39
-0.027814288 -0.2402143 0.88500005 1.5213756e-38
-0.026128573 -0.2402143 0.88500005 1.456909e-38
-0.024498096 -0.24075715 0.88700002 6.7324614e-39
-0.022911429 -0.24184287 0.89100003 1.1990154e-39
-0.021285716 -0.24265715 0.89400005 8.3023291e-40
-0.019582856 -0.24265715 0.89400005 3.8610986e-39
-0.01792 -0.2432 0.89600003 7.733315e-39
-0.016213333 -0.2432 0.89600003 9.0312089e-39
-0.027940001 -0.23960668 0.88900006 1.5397781e-38
-0.026246669 -0.23960668 0.88900006 1.4477273e-38
-0.024691431 -0.24095429 0.89400005 5.7186878e-39
-0.022988571 -0.24095429 0.89400005 9.2240331e-40
-0.021285716 -0.24095429 0.89400005 1.2911858e-39
-0.019626666 -0.24149334 0.89600003 4.8712946e-39
-0.01792 -0.24149334 0.89600003 9.757663e-39
-0.016213333 -0.24149334 0.89600003 9.4907773e-39
-0.026453335 -0.23978667 0.89600003 1.4200676e-38
-0.024746668 -0.23978667 0.89600003 4.4279392e-39
-0.02304 -0.23978667 0.89600003 1.8484388e-40
-0.021333335 -0.23978667 0.89600003 1.4755827e-39
-0.019626666 -0.23978667 0.89600003 5.7000155e-39
-0.017960001 -0.24032192 0.89800006 9.1112538e-39
-0.016249524 -0.24032192 0.89800006 8.6599054e-39
-0.024884764 -0.23940858 0.90100002 5.5346469e-39
-0.023168571 -0.23940858 0.90100002 2.9464066e-39
-0.021571428 -0.24073714 0.90600002 1.2868852e-39
-0.019780001 -0.23994 0.90300006 6.6240527e-39
-0.018060001 -0.23994 0.90300006 1.0219682e-38
-0.024940003 -0.23822001 0.90300006 9.1292003e-39
-0.023220003 -0.23822001 0.90300006 3.046556e-39
-0.021571428 -0.23901144 0.90600002 1.2191297e-42
-0.019845715 -0.23901144 0.90600002 5.6992728e-39
-0.01812 -0.23901144 0.90600002 1.1507598e-38
-0.02710286 -0.24042858 0.91800004 1.5121911e-38
-0.025133334 -0.23833333 0.91000003 8.2072384e-39
-0.023400001 -0.23833333 0.91000003 4.4283638e-39
-0.021666666 -0.23833333 0.91000003 1.1728868e-42
-0.019889524 -0.23780954 0.90800005 4.5943294e-39
-0.01816 -0.23780954 0.90800005 1.132461e-38
-0.02710286 -0.23868001 0.91800004 1.5396695e-38
-0.025271429 -0.2379 0.91500002 7.4678712e-39
-0.02352857 -0.2379 0.91500002 3.7804734e-39
-0.021785714 -0.2379 0.91500002 6.4582203e-40
-0.020042857 -0.2379 0.91500002 3.9511362e-39
-0.018300001 -0.2379 0.91500002 7.6389614e-39
-0.027161906 -0.23744762 0.92000002 1.5488162e-38
-0.025354287 -0.23693144 0.91800004 6.360795e-39
-0.023605715 -0.23693144 0.91800004 4.0545212e-39
-0.021857142 -0.23693144 0.91800004 1.9340217e-39
-0.020108571 -0.23693144 0.91800004 3.311152e-39
-0.018360002 -0.23693144 0.91800004 6.9067815e-39
-0.027309526 -0.23697621 0.92500007 1.5303761e-38
-0.025409523 -0.23569524 0.92000002 4.8856551e-39
-0.023657143 -0.23569524 0.92000002 3.3158954e-39
-0.021904761 -0.23569524 0.92000002 3.8690691e-39
-0.020108571 -0.23518287 0.91800004 4.6941172e-39
-0.018360002 -0.23518287 0.91800004 7.3677905e-39
-0.016611429 -0.23518287 0.91800004 7.0926343e-39
-0.027309526 -0.23521431 0.92500007 1.5211566e-38
-0.025409523 -0.23394285 0.92000002 4.2402857e-39
-0.023657143 -0.23394285 0.92000002 2.7648516e-39
-0.021904761 -0.23394285 0.92000002 3.1336341e-39
-0.020108571 -0.2334343 0.91800004 5.3376608e-39
-0.018360002 -0.2334343 0.91800004 8.1035297e-39
-0.016611429 -0.2334343 0.91800004 7.5525237e-39
-0.027398096 -0.23420954 0.92800003 1.4934986e-38
-0.025547622 -0.23345239 0.92500007 2.8573583e-39
-0.023785716 -0.23345239 0.92500007 1.8447814e-40
-0.022023812 -0.23345239 0.92500007 2.8581514e-39
-0.020152381 -0.23219047 0.92000002 4.696264e-39
-0.0184 -0.23219047 0.92000002 5.4338291e-39
-0.027457144 -0.23294286 0.93000007 1.4843156e-38
-0.025685715 -0.23294286 0.93000007 4.0562672e-39
-0.023914289 -0.23294286 0.93000007 1.8407877e-40
-0.022142859 -0.23294286 0.93000007 2.6733608e-39
-0.02037143 -0.23294286 0.93000007 4.1459517e-39
-0.027545715 -0.23191714 0.93300003 1.5488172e-38
-0.025768572 -0.23191714 0.93300003 5.5310441e-39
-0.023991428 -0.23191714 0.93300003 7.6370766e-43
-0.022261906 -0.23241431 0.93500006 9.2272001e-40
-0.020480953 -0.23241431 0.93500006 2.8556024e-39
-0.018759999 -0.23316 0.93800002 4.1463413e-39
-0.025823811 -0.23063333 0.93500006 6.0856557e-39
-0.024042858 -0.23063333 0.93500006 1.7456704e-39
-0.022261906 -0.23063333 0.93500006 1.4694422e-39
-0.020546667 -0.23137332 0.93800002 2.0272473e-39
-0.018759999 -0.23137332 0.93800002 3.3179861e-39
-0.025906667 -0.22958668 0.93800002 1.0602172e-38
-0.024119999 -0.22958668 0.93800002 1.1079605e-39
-0.022333333 -0.22958668 0.93800002 1.6815582e-43
-0.020590477 -0.23007621 0.94000006 2.7802182e-40
-0.018920001 -0.23154476 0.94600004 2.3063257e-39
-0.017154286 -0.2320343 0.94800007 7.2805835e-39
-0.015348572 -0.2320343 0.94800007 8.4791267e-39
-0.025961906 -0.22828573 0.94000006 1.1155346e-38
-0.024171429 -0.22828573 0.94000006 7.8341693e-39
-0.022523811 -0.22974287 0.94600004 6.4291013e-40
-0.020721905 -0.22974287 0.94600004 3.5873241e-43
-0.018920001 -0.22974287 0.94600004 2.4899981e-39
-0.017154286 -0.23022859 0.94800007 7.8327273e-39
-0.015348572 -0.23022859 0.94800007 9.1234661e-39
-0.024377145 -0.22842288 0.94800007 8.0211165e-39
-0.022571431 -0.22842288 0.94800007 2.7668358e-40
-0.020721905 -0.22794096 0.94600004 3.7134409e-43
-0.018920001 -0.22794096 0.94600004 4.9792955e-39
-0.017154286 -0.22842288 0.94800007 7.9295556e-39
-0.015348572 -0.22842288 0.94800007 8.2983382e-39
-0.024377145 -0.22661716 0.94800007 1.0418165e-38
-0.022571431 -0.22661716 0.94800007 9.2254484e-41
-0.020765714 -0.22661716 0.94800007 1.4349296e-42
-0.018960001 -0.22661716 0.94800007 5.7175612e-39
-0.017154286 -0.22661716 0.94800007 8.8497827e-39
-0.015348572 -0.22661716 0.94800007 7.9278264e-39
-0.024454286 -0.22552286 0.95100003 1.1709606e-38
-0.022642858 -0.22552286 0.95100003 8.3052157e-40
-0.020765714 -0.22481145 0.94800007 1.7950633e-42
-0.018960001 -0.22481145 0.94800007 8.7603799e-39
-0.017208571 -0.22552286 0.95100003 9.6810134e-39
-0.022642858 -0.22371143 0.95100003 1.8439504e-39
-0.020765714 -0.22300573 0.94800007 1.793662e-42
-0.018960001 -0.22300573 0.94800007 9.0373227e-39
-0.012442858 -0.20489238 0.87100005 1.2954626e-39
-0.01078381 -0.20489238 0.87100005 1.1110713e-39
-0.0091247624 -0.20489238 0.87100005 1.8454162e-39
-0.0074657151 -0.20489238 0.87100005 2.1220031e-39
-0.0058066668 -0.20489238 0.87100005 2.1209073e-39
-0.0041571432 -0.20536287 0.87300003 1.0145597e-39
-0.020765714 -0.22120002 0.94800007 3.71679e-40
-0.018960001 -0.22120002 0.94800007 8.5770901e-39
-0.015724761 -0.20276666 0.86900002 9.8667653e-39
-0.014069525 -0.20276666 0.86900002 7.193092e-39
-0.012414285 -0.20276666 0.86900002 5.8108863e-39
-0.010759047 -0.20276666 0.86900002 6.36406e-39
-0.0091247624 -0.20323335 0.87100005 5.5314463e-39
-0.0074485713 -0.20276666 0.86900002 5.2548594e-39
-0.0057933335 -0.20276666 0.86900002 4.700594e-39
-0.0041476195 -0.20323335 0.87100005 4.3318115e-39
-0.0024942856 -0.20370001 0.87300003 4.7938575e-39
-0.017380001 -0.20111144 0.86900002 8.5770452e-39
-0.015688572 -0.20064859 0.86700004 9.5891232e-39
-0.014037143 -0.20064859 0.86700004 9.2203407e-39
-0.012414285 -0.20111144 0.86900002 9.3125223e-39
-0.010759047 -0.20111144 0.86900002 9.1281311e-39
-0.0091038095 -0.20111144 0.86900002 8.9437398e-39
-0.0074485713 -0.20111144 0.86900002 8.390566e-39
-0.0057933335 -0.20111144 0.86900002 8.1121841e-39
-0.0041476195 -0.2015743 0.87100005 8.388771e-39
-0.0024885715 -0.2015743 0.87100005 8.1111471e-39
-0.017380001 -0.19945619 0.86900002 7.7491146e-39
-0.015688572 -0.19899714 0.86700004 1.0144102e-38
-0.014037143 -0.19899714 0.86700004 1.3739731e-38
-0.012385715 -0.19899714 0.86700004 1.4199254e-38
-0.010734286 -0.19899714 0.86700004 1.3830471e-38
-0.0091038095 -0.19945619 0.86900002 1.373791e-38
-0.0074485713 -0.19945619 0.86900002 1.3922301e-38
-0.0057933335 -0.19945619 0.86900002 1.4381837e-38
-0.0041476195 -0.19991525 0.87100005 1.5027207e-38
-0.0024885715 -0.19991525 0.87100005 1.4104534e-38
-0.015634285 -0.19666286 0.86400002 1.0786924e-38
-0.013988572 -0.19666286 0.86400002 1.4474749e-38
-0.012342857 -0.19666286 0.86400002 1.4108504e-38
-0.010697143 -0.19666286 0.86400002 1.3463135e-38
-0.0090828575 -0.19734572 0.86700004 1.3093989e-38
-0.0074314289 -0.19734572 0.86700004 1.3739359e-38
-0.0057800002 -0.19734572 0.86700004 1.4383642e-38
-0.0041476195 -0.19825619 0.87100005 1.5029012e-38
-0.0024885715 -0.19825619 0.87100005 1.3735428e-38
-0.017240001 -0.19456571 0.86200005 3.9676869e-39
-0.015598095 -0.19456571 0.86200005 9.0395003e-39
-0.013988572 -0.19501714 0.86400002 1.4386847e-38
-0.012342857 -0.19501714 0.86400002 1.4477263e-38
-0.010697143 -0.19501714 0.86400002 1.3094328e-38
-0.0090828575 -0.19569428 0.86700004 1.2817765e-38
-0.0074314289 -0.19569428 0.86700004 1.2909961e-38
-0.0057800002 -0.19569428 0.86700004 1.3646077e-38
-0.0041380953 -0.19614571 0.86900002 1.4660229e-38
-0.0024885715 -0.19659716 0.87100005 1.2907426e-38
-0.00082952384 -0.19659716 0.87100005 4.6098193e-39
0.00082952384 -0.19659716 0.87100005 1.0026687e-38
-0.018881904 -0.19292381 0.86200005 7.1004956e-39
-0.017240001 -0.19292381 0.86200005 6.0863437e-39
-0.015598095 -0.19292381 0.86200005 9.0395494e-39
-0.013988572 -0.19337143 0.86400002 1.4202505e-38
-0.012342857 -0.19337143 0.86400002 1.4476208e-38
-0.010697143 -0.19337143 0.86400002 1.3001078e-38
-0.0090514291 -0.19337143 0.86400002 1.2909242e-38
-0.0074057141 -0.19337143 0.86400002 1.2817046e-38
-0.0057600001 -0.19337143 0.86400002 1.2909242e-38
-0.0041285716 -0.19404286 0.86700004 1.3923394e-38
-0.0024828573 -0.19449049 0.86900002 1.2446445e-38
-0.00082761905 -0.19449049 0.86900002 4.1488384e-39
0.00082952384 -0.19493811 0.87100005 1.0210359e-38
0.0024885715 -0.19493811 0.87100005 1.4820141e-38
-0.018881904 -0.19128191 0.86200005 9.1291876e-39
-0.017240001 -0.19128191 0.86200005 9.4979702e-39
-0.015598095 -0.19128191 0.86200005 1.0513664e-38
-0.013956192 -0.19128191 0.86200005 1.5031245e-38
-0.012314286 -0.19128191 0.86200005 1.5030787e-38
-0.010672381 -0.19128191 0.86200005 1.3371266e-38
-0.0090304762 -0.19128191 0.86200005 1.3463132e-38
-0.0073885717 -0.19128191 0.86200005 1.3739719e-38
-0.0057466668 -0.19128191 0.86200005 1.4474399e-38
-0.0041285716 -0.19239144 0.86700004 1.4290007e-38
-0.002477143 -0.19239144 0.86700004 1.272159e-38
-0.00082571432 -0.19239144 0.86700004 5.5303309e-39
0.00082761905 -0.19283524 0.86900002 1.0395495e-38
0.0024885715 -0.19327906 0.87100005 1.3991124e-38
-0.018881904 -0.18964 0.86200005 9.7709417e-39
-0.017240001 -0.18964 0.86200005 1.0600702e-38
-0.015598095 -0.18964 0.86200005 1.2726671e-38
-0.013956192 -0.18964 0.86200005 1.5215953e-38
-0.012314286 -0.18964 0.86200005 1.5031542e-38
-0.010672381 -0.18964 0.86200005 1.3464217e-38
-0.0090304762 -0.18964 0.86200005 1.4106709e-38
-0.0073885717 -0.18964 0.86200005 1.4567687e-38
-0.0057466668 -0.18964 0.86200005 1.502652e-38
-0.004114286 -0.19008 0.86400002 1.4565542e-38
-0.002477143 -0.19074 0.86700004 1.2721237e-38
-0.00082571432 -0.19074 0.86700004 6.6363253e-39
0.00082761905 -0.19117999 0.86900002 1.1416083e-38
0.0024828573 -0.19117999 0.86900002 1.3259996e-38
-0.018838096 -0.1875619 0.86000001 1.0970223e-38
-0.017199999 -0.1875619 0.86000001 1.1062419e-38
-0.015598095 -0.1879981 0.86200005 1.3093649e-38
-0.013956192 -0.1879981 0.86200005 1.7058061e-38
-0.012314286 -0.1879981 0.86200005 1.6228274e-38
-0.010672381 -0.1879981 0.86200005 1.4753143e-38
-0.0090304762 -0.1879981 0.86200005 1.4845003e-38
-0.0073885717 -0.1879981 0.86200005 1.6043546e-38
-0.0057466668 -0.1879981 0.86200005 1.5673684e-38
-0.004114286 -0.18843429 0.86400002 1.4751728e-38
-0.002477143 -0.18908858 0.86700004 1.3274388e-38
-0.00082571432 -0.18908858 0.86700004 6.9128898e-39
0.00082761905 -0.18952477 0.86900002 1.012248e-38
0.0024828573 -0.18952477 0.86900002 1.1782001e-38
-0.018838096 -0.18592381 0.86000001 1.1246813e-38
-0.017199999 -0.18592381 0.86000001 1.1062422e-38
-0.015598095 -0.1863562 0.86200005 1.2537939e-38
-0.013956192 -0.1863562 0.86200005 1.4474047e-38
-0.012314286 -0.1863562 0.86200005 1.383155e-38
-0.010672381 -0.1863562 0.86200005 1.3278376e-38
-0.0090095233 -0.18592381 0.86000001 1.3003233e-38
-0.0073714289 -0.18592381 0.86000001 1.3187624e-38
-0.0057466668 -0.1863562 0.86200005 1.364681e-38
-0.0041047623 -0.1863562 0.86200005 1.3462419e-38
-0.0024685713 -0.18678857 0.86400002 1.1064587e-38
-0.00082571432 -0.18743715 0.86700004 6.5470009e-39
0.00082761905 -0.18786952 0.86900002 9.9391578e-39
0.0024828573 -0.18786952 0.86900002 1.1322092e-38
0.0041476195 -0.18830191 0.87100005 9.7526183e-39
0.0058200001 -0.18873429 0.87300003 5.3272281e-39
-0.018881904 -0.1847143 0.86200005 1.1799271e-38
-0.017240001 -0.1847143 0.86200005 8.5724237e-39
-0.015598095 -0.1847143 0.86200005 6.9157835e-39
-0.013956192 -0.1847143 0.86200005 3.6889364e-39
-0.012314286 -0.1847143 0.86200005 2.9539091e-39
-0.010647619 -0.18428572 0.86000001 3.7836698e-39
-0.0090095233 -0.18428572 0.86000001 2.222458e-39
-0.0073714289 -0.18428572 0.86000001 1.5770886e-39
-0.0057333331 -0.18428572 0.86000001 2.4968869e-39
-0.0041047623 -0.1847143 0.86200005 3.1422563e-39
-0.0024685713 -0.18514286 0.86400002 6.8181606e-39
-0.00082285714 -0.18514286 0.86400002 7.7401169e-39
0.00082571432 -0.18578573 0.86700004 1.0584868e-38
0.0024828573 -0.1862143 0.86900002 1.1045846e-38
0.0041476195 -0.18664286 0.87100005 9.6611289e-39
0.0058066668 -0.18664286 0.87100005 5.1435431e-39
0.0074657151 -0.18664286 0.87100005 3.3089687e-39
-0.018881904 -0.18307239 0.86200005 1.244247e-38
-0.017199999 -0.18264762 0.86000001 8.4780575e-39
-0.015561905 -0.18264762 0.86000001 5.9023504e-39
-0.013956192 -0.18307239 0.86200005 3.9662422e-39
-0.012285715 -0.18264762 0.86000001 2.1230723e-39
-0.010647619 -0.18264762 0.86000001 2.9528329e-39
-0.0090095233 -0.18264762 0.86000001 2.217772e-39
-0.0073714289 -0.18264762 0.86000001 1.9411851e-39
-0.0057333331 -0.18264762 0.86000001 1.385859e-39
-0.0041047623 -0.18307239 0.86200005 1.6624458e-39
-0.0024685713 -0.18349715 0.86400002 5.8925792e-39
-0.00082285714 -0.18349715 0.86400002 8.3818612e-39
0.00082571432 -0.18413429 0.86700004 1.1138067e-38
0.0024828573 -0.18455905 0.86900002 1.1045871e-38
0.0041476195 -0.18498382 0.87100005 9.1072363e-39
0.0058066668 -0.18498382 0.87100005 5.1428242e-39
0.0074657151 -0.18498382 0.87100005 3.2174738e-39
-0.018881904 -0.18143049 0.86200005 1.1431545e-38
-0.017199999 -0.18100952 0.86000001 6.7295677e-39
-0.015561905 -0.18100952 0.86000001 4.4308371e-39
-0.013923809 -0.18100952 0.86000001 4.707424e-39
-0.012285715 -0.18100952 0.86000001 4.611641e-39
-0.010647619 -0.18100952 0.86000001 4.611641e-39
-0.0090095233 -0.18100952 0.86000001 4.5205104e-39
-0.0073714289 -0.18100952 0.86000001 5.1658798e-39
-0.0057333331 -0.18100952 0.86000001 4.4279658e-39
-0.004114286 -0.18185143 0.86400002 3.3216183e-39
-0.002477143 -0.18248287 0.86700004 5.3387243e-39
-0.00082571432 -0.18248287 0.86700004 8.4733758e-39
0.00082761905 -0.18290381 0.86900002 1.1047306e-38
0.0024828573 -0.18290381 0.86900002 1.0494132e-38
0.0041476195 -0.18332477 0.87100005 7.725371e-39
-0.017120002 -0.17853716 0.85600007 5.8079996e-39
-0.015489525 -0.17853716 0.85600007 4.0588035e-39
-0.013859048 -0.17853716 0.85600007 5.0729555e-39
-0.012257144 -0.17895429 0.85800004 5.9001952e-39
-0.010622857 -0.17895429 0.85800004 5.8079996e-39
-0.0089885723 -0.17895429 0.85800004 4.9818388e-39
-0.0073542856 -0.17895429 0.85800004 5.442817e-39
-0.0057333331 -0.17937142 0.86000001 5.9041483e-39
-0.0040952382 -0.17937142 0.86000001 2.3085187e-39
-0.0024571428 -0.17937142 0.86000001 4.8727043e-39
-0.017120002 -0.17690668 0.85600007 1.1331487e-38
-0.015489525 -0.17690668 0.85600007 1.1234919e-38
-0.013859048 -0.17690668 0.85600007 1.1142723e-38
-0.012257144 -0.17732 0.85800004 1.114237e-38
-0.010622857 -0.17732 0.85800004 1.0865783e-38
-0.0089885723 -0.17732 0.85800004 1.0681389e-38
-0.0073542856 -0.17732 0.85800004 1.1050172e-38
-0.0057200002 -0.17732 0.85800004 1.0215044e-38
-0.0040952382 -0.17773335 0.86000001 9.7540659e-39
-0.0024571428 -0.17773335 0.86000001 1.0673836e-38
-0.017120002 -0.17527619 0.85600007 1.2892292e-38
-0.015489525 -0.17527619 0.85600007 1.4629253e-38
-0.013859048 -0.17527619 0.85600007 1.4721449e-38
-0.012257144 -0.17568572 0.85800004 1.3344635e-38
-0.010622857 -0.17568572 0.85800004 1.2238288e-38
-0.0089885723 -0.17568572 0.85800004 1.1865189e-38
-0.0073542856 -0.17568572 0.85800004 1.2326167e-38
-0.0057200002 -0.17568572 0.85800004 1.2597735e-38
-0.004085714 -0.17568572 0.85800004 1.3058713e-38
-0.0024571428 -0.17609525 0.86000001 1.3152716e-38
-0.018838096 -0.17445715 0.86000001 1.4546794e-38
-0.017160002 -0.17405143 0.85800004 1.7220467e-38
-0.015525714 -0.17405143 0.85800004 1.8317447e-38
-0.013891429 -0.17405143 0.85800004 1.868623e-38
-0.012257144 -0.17405143 0.85800004 1.7580602e-38
-0.010622857 -0.17405143 0.85800004 1.6843037e-38
-0.0089885723 -0.17405143 0.85800004 1.6842311e-38
-0.0073371432 -0.17364573 0.85600007 1.7118898e-38
-0.005706667 -0.17364573 0.85600007 1.7117116e-38
-0.0040761908 -0.17364573 0.85600007 1.6932725e-38
-0.0024514287 -0.17405143 0.85800004 1.4812594e-38
-0.00081714289 -0.17405143 0.85800004 1.2968681e-38
-0.018838096 -0.17281905 0.86000001 1.4261868e-38
-0.017160002 -0.17241715 0.85800004 1.8502867e-38
-0.015525714 -0.17241715 0.85800004 1.9047466e-38
-0.013891429 -0.17241715 0.85800004 1.9692835e-38
-0.012257144 -0.17241715 0.85800004 1.9140388e-38
-0.010622857 -0.17241715 0.85800004 1.8310627e-38
-0.0089676194 -0.17201525 0.85600007 1.858467e-38
-0.0073371432 -0.17201525 0.85600007 1.9045649e-38
-0.0056933332 -0.17161334 0.85400003 1.8954933e-38
-0.0040666666 -0.17161334 0.85400003 1.8770541e-38
-0.0024457145 -0.17201525 0.85600007 1.5269593e-38
-0.00081523816 -0.17201525 0.85600007 1.5361789e-38
-0.020428572 -0.17078286 0.85800004 1.0226881e-38
-0.018794287 -0.17078286 0.85800004 1.4534887e-38
-0.017160002 -0.17078286 0.85800004 1.8868082e-38
-0.015525714 -0.17078286 0.85800004 1.9967267e-38
-0.013891429 -0.17078286 0.85800004 1.9875072e-38
-0.012257144 -0.17078286 0.85800004 1.9508114e-38
-0.010622857 -0.17078286 0.85800004 1.9231527e-38
-0.0089676194 -0.17038476 0.85600007 1.9232939e-38
-0.0073371432 -0.17038476 0.85600007 2.1169047e-38
-0.0056933332 -0.16998667 0.85400003 2.0066284e-38
-0.0040666666 -0.16998667 0.85400003 1.7023829e-38
-0.0024457145 -0.17038476 0.85600007 1.5912009e-38
-0.00081333338 -0.16998667 0.85400003 1.8309095e-38
0.00081333338 -0.16998667 0.85400003 1.4550321e-38
-0.020428572 -0.16914858 0.85800004 1.0412361e-38
-0.018794287 -0.16914858 0.85800004 1.545612e-38
-0.017160002 -0.16914858 0.85800004 1.9604924e-38
-0.015525714 -0.16914858 0.85800004 2.0800965e-38
-0.013891429 -0.16914858 0.85800004 1.9971205e-38
-0.012257144 -0.16914858 0.85800004 2.0063057e-38
-0.010622857 -0.16914858 0.85800004 1.9048905e-38
-0.0089676194 -0.16875429 0.85600007 1.9049258e-38
-0.0073371432 -0.16875429 0.85600007 2.0155606e-38
-0.005706667 -0.16875429 0.85600007 2.006666e-38
-0.0040666666 -0.16835999 0.85400003 1.7208595e-38
-0.00244 -0.16835999 0.85400003 1.5909154e-38
-0.00081333338 -0.16835999 0.85400003 1.895161e-38
0.00081333338 -0.16835999 0.85400003 1.5285413e-38
-0.02047619 -0.16790476 0.86000001 1.2163009e-38
-0.018838096 -0.16790476 0.86000001 1.4726121e-38
-0.017160002 -0.16751429 0.85800004 1.4818316e-38
-0.015525714 -0.16751429 0.85800004 1.6001042e-38
-0.013891429 -0.16751429 0.85800004 1.4894694e-38
-0.012257144 -0.16751429 0.85800004 1.4526971e-38
-0.010622857 -0.16751429 0.85800004 1.369721e-38
-0.0089676194 -0.16712382 0.85600007 1.4154974e-38
-0.0073371432 -0.16712382 0.85600007 1.4708148e-38
-0.005706667 -0.16712382 0.85600007 1.5539726e-38
-0.0040666666 -0.16673334 0.85400003 1.5263139e-38
-0.0024314285 -0.16614762 0.85100001 1.5356327e-38
-0.00081047619 -0.16614762 0.85100001 1.7845609e-38
0.00081333338 -0.16673334 0.85400003 1.4087185e-38
-0.02047619 -0.16626666 0.86000001 1.2901643e-38
-0.018838096 -0.16626666 0.86000001 1.4546409e-38
-0.017199999 -0.16626666 0.86000001 1.0581996e-38
-0.015525714 -0.16588001 0.85800004 1.2681549e-38
-0.013891429 -0.16588001 0.85800004 1.7383514e-38
-0.012257144 -0.16588001 0.85800004 1.4449275e-38
-0.010622857 -0.16588001 0.85800004 1.4357079e-38
-0.0089676194 -0.16549335 0.85600007 1.4261331e-38
-0.0073371432 -0.16549335 0.85600007 1.2048636e-38
-0.005706667 -0.16549335 0.85600007 1.2495087e-38
-0.0040666666 -0.16510667 0.85400003 1.3785826e-38
-0.0024314285 -0.16452667 0.85100001 1.4068818e-38
-0.00081047619 -0.16452667 0.85100001 1.6097122e-38
0.00081333338 -0.16510667 0.85400003 1.2612458e-38
-0.02047619 -0.16462857 0.86000001 1.3730665e-38
-0.018838096 -0.16462857 0.86000001 1.4089746e-38
-0.017199999 -0.16462857 0.86000001 6.714096e-39
-0.015525714 -0.16424572 0.85800004 8.4585556e-39
-0.013891429 -0.16424572 0.85800004 1.8784466e-38
-0.012257144 -0.16424572 0.85800004 1.8436677e-38
-0.010622857 -0.16424572 0.85800004 1.8713263e-38
-0.0089885723 -0.16424572 0.85800004 1.7880657e-38
-0.0073371432 -0.16386287 0.85600007 9.9518423e-39
-0.005706667 -0.16386287 0.85600007 9.8375538e-39
-0.0040666666 -0.16348 0.85400003 8.6390106e-39
-0.00244 -0.16348 0.85400003 1.1851182e-38
-0.00081333338 -0.16348 0.85400003 1.6276572e-38
0.00081333338 -0.16348 0.85400003 1.2336209e-38
-0.02047619 -0.16299048 0.86000001 1.3084945e-38
-0.018838096 -0.16299048 0.86000001 1.3265699e-38
-0.017160002 -0.16261142 0.85800004 8.5637217e-39
-0.015525714 -0.16261142 0.85800004 5.2520008e-39
-0.013891429 -0.16261142 0.85800004 1.6223281e-38
-0.012257144 -0.16261142 0.85800004 1.5043083e-38
-0.010622857 -0.16261142 0.85800004 1.4582112e-38
-0.0089885723 -0.16261142 0.85800004 1.4485613e-38
-0.0073371432 -0.16223238 0.85600007 8.0319289e-39
-0.005706667 -0.16223238 0.85600007 7.7373199e-39
-0.0040761908 -0.16223238 0.85600007 4.971451e-39
-0.00244 -0.16185333 0.85400003 1.0290999e-38
-0.00081333338 -0.16185333 0.85400003 1.5914932e-38
0.00081714289 -0.16261142 0.85800004 1.1602622e-38
-0.02047619 -0.16135238 0.86000001 7.7368799e-39
-0.018838096 -0.16135238 0.86000001 9.5693089e-39
-0.017160002 -0.16097714 0.85800004 1.3257134e-38
-0.015525714 -0.16097714 0.85800004 1.1246531e-38
-0.013891429 -0.16097714 0.85800004 1.7423632e-38
-0.012257144 -0.16097714 0.85800004 1.6052556e-38
-0.010622857 -0.16097714 0.85800004 1.5591585e-38
-0.0089885723 -0.16097714 0.85800004 1.5682703e-38
-0.0073542856 -0.16097714 0.85800004 1.1626107e-38
-0.005706667 -0.16060191 0.85600007 9.767842e-39
-0.0040761908 -0.16060191 0.85600007 4.6048868e-39
-0.0024514287 -0.16097714 0.85800004 1.0013736e-38
-0.00081714289 -0.16097714 0.85800004 1.5729865e-38
0.00081714289 -0.16097714 0.85800004 1.1049443e-38
-0.020523811 -0.16008572 0.86200005 7.8287224e-39
-0.018838096 -0.15971428 0.86000001 9.3783932e-39
-0.017199999 -0.15971428 0.86000001 1.472574e-38
-0.015561905 -0.15971428 0.86000001 1.2258856e-38
-0.013891429 -0.15934287 0.85800004 1.5670094e-38
-0.012257144 -0.15934287 0.85800004 1.2646382e-38
-0.010622857 -0.15934287 0.85800004 1.2185404e-38
-0.0089885723 -0.15934287 0.85800004 1.3379275e-38
-0.0073542856 -0.15934287 0.85800004 1.0521211e-38
-0.0057200002 -0.15934287 0.85800004 1.096849e-38
-0.004085714 -0.15934287 0.85800004 4.8835784e-39
-0.0024514287 -0.15934287 0.85800004 1.0106247e-38
-0.00081904762 -0.15971428 0.86000001 1.5914572e-38
0.00081904762 -0.15971428 0.86000001 1.00396e-38
-0.020523811 -0.15844382 0.86200005 1.2992413e-38
-0.018794287 -0.15770859 0.85800004 1.3634125e-38
-0.017160002 -0.15770859 0.85800004 1.3173147e-38
-0.015525714 -0.15770859 0.85800004 8.4781318e-39
-0.013891429 -0.15770859 0.85800004 6.4498279e-39
-0.012257144 -0.15770859 0.85800004 1.590115e-39
-0.010622857 -0.15770859 0.85800004 1.2213325e-39
-0.0089885723 -0.15770859 0.85800004 4.5334976e-39
-0.0073542856 -0.15770859 0.85800004 6.4696058e-39
-0.0057200002 -0.15770859 0.85800004 1.0872973e-38
-0.004085714 -0.15770859 0.85800004 4.6958661e-39
-0.0024514287 -0.15770859 0.85800004 9.8303862e-39
-0.00081904762 -0.15807618 0.86000001 1.5269928e-38
0.00081904762 -0.15807618 0.86000001 1.261602e-38
-0.018794287 -0.15607429 0.85800004 1.4925262e-38
-0.017160002 -0.15607429 0.85800004 1.1514024e-38
-0.015525714 -0.15607429 0.85800004 8.8436254e-39
-0.013891429 -0.15607429 0.85800004 6.3543434e-39
-0.012257144 -0.15607429 0.85800004 1.8533728e-39
-0.010622857 -0.15607429 0.85800004 1.9455684e-39
-0.0089885723 -0.15607429 0.85800004 4.3393533e-39
-0.0073542856 -0.15607429 0.85800004 6.2754615e-39
-0.0057200002 -0.15607429 0.85800004 9.3942909e-39
-0.004085714 -0.15607429 0.85800004 6.0752482e-39
-0.0024514287 -0.15607429 0.85800004 1.0016902e-38
-0.00081904762 -0.1564381 0.86000001 1.5179857e-38
0.00081904762 -0.1564381 0.86000001 1.353475e-38
-0.018838096 -0.15480001 0.86000001 1.4187697e-38
-0.017160002 -0.15444 0.85800004 1.1053046e-38
-0.015525714 -0.15444 0.85800004 8.7514298e-39
-0.013891429 -0.15444 0.85800004 7.6450822e-39
-0.012257144 -0.15444 0.85800004 3.0522663e-39
-0.010622857 -0.15444 0.85800004 1.7615275e-39
-0.0089885723 -0.15444 0.85800004 3.4213501e-39
-0.0073714289 -0.15480001 0.86000001 6.187219e-39
-0.0057333331 -0.15480001 0.86000001 9.3052944e-39
-0.0040952382 -0.15480001 0.86000001 5.6174692e-39
-0.0024571428 -0.15480001 0.86000001 9.8318688e-39
-0.00082095241 -0.15516001 0.86200005 1.4626042e-38
0.00082095241 -0.15516001 0.86200005 1.2798254e-38
-0.018838096 -0.15316191 0.86000001 1.4093334e-38
-0.017199999 -0.15316191 0.86000001 1.1604052e-38
-0.015561905 -0.15316191 0.86000001 1.0774025e-38
-0.013923809 -0.15316191 0.86000001 9.7598728e-39
-0.012285715 -0.15316191 0.86000001 7.286085e-39
-0.010647619 -0.15316191 0.86000001 4.5202161e-39
-0.0090095233 -0.15316191 0.86000001 3.4213991e-39
-0.0073714289 -0.15316191 0.86000001 7.2936156e-39
-0.0057466668 -0.15351811 0.86200005 1.0964877e-38
-0.0041047623 -0.15351811 0.86200005 5.5253353e-39
-0.0024628574 -0.15351811 0.86200005 9.9225692e-39
-0.00082285714 -0.15387429 0.86400002 1.5362111e-38
-0.018881904 -0.15187621 0.86200005 1.2802553e-38
-0.017199999 -0.15152381 0.86000001 1.1235227e-38
-0.015561905 -0.15152381 0.86000001 1.1697811e-38
-0.013923809 -0.15152381 0.86000001 1.1882202e-38
-0.012285715 -0.15152381 0.86000001 9.0403453e-39
-0.010647619 -0.15152381 0.86000001 7.1964327e-39
-0.0090095233 -0.15152381 0.86000001 6.9234318e-39
-0.0073714289 -0.15152381 0.86000001 9.6893007e-39
-0.0057466668 -0.15187621 0.86200005 1.1704266e-38
-0.0041047623 -0.15187621 0.86200005 4.8817889e-39
-0.0024628574 -0.15187621 0.86200005 9.1861308e-39
-0.00082571432 -0.15275714 0.86700004 1.3703717e-38
-0.019035237 -0.15145428 0.86900002 1.2339822e-38
-0.017199999 -0.14988571 0.86000001 1.2708604e-38
-0.015561905 -0.14988571 0.86000001 1.2529717e-38
-0.013923809 -0.14988571 0.86000001 1.2529717e-38
-0.012285715 -0.14988571 0.86000001 1.0241017e-38
-0.010647619 -0.14988571 0.86000001 7.8439307e-39
-0.0090304762 -0.15023428 0.86200005 7.3869028e-39
-0.0073885717 -0.15023428 0.86200005 8.4932504e-39
-0.0057466668 -0.15023428 0.86200005 1.1336199e-38
-0.004114286 -0.15058285 0.86400002 4.7903094e-39
-0.002477143 -0.15110572 0.86700004 8.8201649e-39
-0.00082761905 -0.15145428 0.86900002 1.398312e-38
-0.019035237 -0.14979905 0.86900002 1.1329305e-38
-0.017199999 -0.14824761 0.86000001 1.1790283e-38
-0.015561905 -0.14824761 0.86000001 1.0413887e-38
-0.013923809 -0.14824761 0.86000001 9.6763218e-39
-0.012314286 -0.14859238 0.86200005 6.6446715e-39
-0.010672381 -0.14859238 0.86200005 5.7227152e-39
-0.0090304762 -0.14859238 0.86200005 7.657366e-39
-0.0073885717 -0.14859238 0.86200005 8.7637136e-39
-0.0057600001 -0.14893715 0.86400002 1.0781541e-38
-0.004114286 -0.14893715 0.86400002 4.7888254e-39
-0.015561905 -0.14660953 0.86000001 8.6671669e-39
-0.013923809 -0.14660953 0.86000001 5.901298e-39
-0.012314286 -0.14695048 0.86200005 5.0766045e-39
-0.010672381 -0.14695048 0.86200005 5.1688001e-39
-0.0090304762 -0.14695048 0.86200005 6.1793521e-39
-0.0073885717 -0.14695048 0.86200005 6.6403302e-39
-0.0057600001 -0.14729144 0.86400002 8.8429388e-39
-0.004114286 -0.14729144 0.86400002 5.7082874e-39
-0.013956192 -0.14530857 0.86200005 5.4409743e-39
-0.012314286 -0.14530857 0.86200005 3.0508341e-39
-0.010672381 -0.14530857 0.86200005 2.7742473e-39
-0.0090304762 -0.14530857 0.86200005 3.5081871e-39
-0.0073885717 -0.14530857 0.86200005 2.7706221e-39
-0.0057600001 -0.14564572 0.86400002 4.3253599e-39
-0.013956192 -0.14366667 0.86200005 5.8065296e-39
-0.012314286 -0.14366667 0.86200005 3.7829201e-39
-0.010672381 -0.14366667 0.86200005 4.059507e-39
-0.0090304762 -0.14366667 0.86200005 3.6896707e-39
-0.0073885717 -0.14366667 0.86200005 2.7677144e-39
-0.0057600001 -0.14399999 0.86400002 1.015266e-39
