# .PCD v0.7 - Point Cloud Data file format
VERSION 0.7
FIELDS x y z rgb
SIZE 4 4 4 4
TYPE F F F F
COUNT 1 1 1 1
WIDTH 972
HEIGHT 1
VIEWPOINT 0 0 0 1 0 0 0
POINTS 972
DATA ascii
-0.02124762 -0.19492382 0.97000003 9.0341025e-39
-0.019400001 -0.19492382 0.97000003 3.4101691e-39
-0.017552381 -0.19492382 0.97000003 3.2261464e-39
-0.015704762 -0.19492382 0.97000003 3.2261464e-39
-0.013857143 -0.19492382 0.97000003 3.4087398e-39
-0.011972382 -0.19432096 0.96700007 3.1321529e-39
-0.010130477 -0.19432096 0.96700007 3.1318026e-39
-0.0082885725 -0.19432096 0.96700007 3.2239982e-39
-0.006413334 -0.19331619 0.96200007 3.4097964e-39
-0.0045285714 -0.19110572 0.95100003 2.5800357e-39
-0.0027085717 -0.19050287 0.94800007 3.9633331e-39
-0.00090095244 -0.19010095 0.94600004 8.5731146e-39
0.00090095244 -0.19010095 0.94600004 8.2061397e-39
0.0027028571 -0.19010095 0.94600004 8.0217485e-39
0.0045047617 -0.19010095 0.94600004 7.3781811e-39
0.0063066669 -0.19010095 0.94600004 6.3640292e-39
0.008125715 -0.19050287 0.94800007 5.0726164e-39
0.0099314293 -0.19050287 0.94800007 4.0584644e-39
0.011774287 -0.19110572 0.95100003 1.2342711e-38
0.013585715 -0.19110572 0.95100003 2.1377883e-38
0.015478096 -0.19211048 0.95600003 2.0925534e-38
0.017299049 -0.19211048 0.95600003 2.037236e-38
0.01912 -0.19211048 0.95600003 1.9726687e-38
0.020940954 -0.19211048 0.95600003 1.7421796e-38
0.022761906 -0.19211048 0.95600003 1.3186499e-38
0.024582857 -0.19211048 0.95600003 1.938632e-39
0.026403811 -0.19211048 0.95600003 9.2483036e-40
0.028401908 -0.19331619 0.96200007 4.9814381e-39
0.030234287 -0.19331619 0.96200007 5.8998169e-39
0.032133333 -0.19371811 0.96400005 5.8076212e-39
0.033969525 -0.19371811 0.96400005 5.8987379e-39
0.035805713 -0.19371811 0.96400005 5.9909335e-39
0.037759051 -0.19432096 0.96700007 5.9909335e-39
0.039600953 -0.19432096 0.96700007 5.8987379e-39
0.04144286 -0.19432096 0.96700007 5.9905804e-39
0.043419048 -0.19492382 0.97000003 5.9905804e-39
0.045266669 -0.19492382 0.97000003 5.9905804e-39
0.047260001 -0.19552667 0.97300005 5.5296022e-39
0.049214289 -0.19592857 0.97500002 6.0798921e-39
0.051228572 -0.19653144 0.97800004 6.0798921e-39
0.052928571 -0.19592857 0.97500002 1.1608733e-38
0.054785714 -0.19592857 0.97500002 1.5388754e-38
-0.096161902 -0.17476381 0.87800002 1.9444999e-38
-0.09448953 -0.17476381 0.87800002 6.5376108e-39
-0.092817143 -0.17476381 0.87800002 1.2585429e-38
-0.091352388 -0.17516191 0.88000005 1.4152754e-38
-0.089676194 -0.17516191 0.88000005 1.5257008e-38
-0.088000007 -0.17516191 0.88000005 1.6547747e-38
-0.086323813 -0.17516191 0.88000005 1.5357445e-38
-0.084647626 -0.17516191 0.88000005 1.3329141e-38
-0.082971431 -0.17516191 0.88000005 1.3698299e-38
-0.081295244 -0.17516191 0.88000005 1.2684147e-38
-0.079800002 -0.17556001 0.88200003 1.2961806e-38
-0.078120001 -0.17556001 0.88200003 1.7755979e-38
-0.076700002 -0.17615715 0.88500005 1.6209083e-38
-0.075183809 -0.17655525 0.88700002 1.5932496e-38
-0.073660001 -0.17695335 0.88900006 1.5662348e-38
-0.072371431 -0.17794858 0.89400005 1.6584304e-38
-0.070668571 -0.17794858 0.89400005 1.5297558e-38
-0.068965718 -0.17794858 0.89400005 1.1517537e-38
-0.067413338 -0.17834668 0.89600003 1.2617112e-38
-0.06570667 -0.17834668 0.89600003 1.2248329e-38
-0.064000003 -0.17834668 0.89600003 1.3246309e-38
-0.062432382 -0.17874476 0.89800006 1.260094e-38
-0.060721908 -0.17874476 0.89800006 1.3243394e-38
-0.059011433 -0.17874476 0.89800006 1.3243394e-38
-0.057173334 -0.17834668 0.89600003 1.0027e-38
-0.055342861 -0.17794858 0.89400005 5.1427878e-39
-0.053640001 -0.17794858 0.89400005 3.6762897e-39
-0.03977143 -0.18471619 0.92800003 1.6774222e-38
-0.038003813 -0.18471619 0.92800003 1.6682027e-38
-0.023095237 -0.19307619 0.97000003 7.742998e-39
-0.02124762 -0.19307619 0.97000003 5.6296269e-39
-0.019400001 -0.19307619 0.97000003 9.7933947e-41
-0.017552381 -0.19307619 0.97000003 1.2025215e-39
-0.015704762 -0.19307619 0.97000003 2.4932603e-39
-0.013857143 -0.19307619 0.97000003 3.3169365e-39
-0.012009524 -0.19307619 0.97000003 3.4091322e-39
-0.010161905 -0.19307619 0.97000003 3.5931282e-39
-0.0082885725 -0.19247906 0.96700007 2.9477588e-39
-0.006446667 -0.19247906 0.96700007 2.3970864e-39
-0.0045904764 -0.19188191 0.96400005 1.751717e-39
-0.0027314285 -0.19028953 0.95600003 3.6870811e-39
-0.00090285722 -0.18869716 0.94800007 1.004858e-38
0.00090285722 -0.18869716 0.94800007 9.6791244e-39
0.0027085717 -0.18869716 0.94800007 7.5586249e-39
0.0045142858 -0.18869716 0.94800007 7.7451616e-39
0.0063200006 -0.18869716 0.94800007 8.390531e-39
0.008125715 -0.18869716 0.94800007 8.1128875e-39
0.0099314293 -0.18869716 0.94800007 7.4675181e-39
0.011774287 -0.18929429 0.95100003 9.768006e-39
0.013585715 -0.18929429 0.95100003 1.4009005e-38
0.015445715 -0.18989144 0.95400006 1.880487e-38
0.017299049 -0.19028953 0.95600003 2.1201957e-38
0.01912 -0.19028953 0.95600003 2.0187253e-38
0.020940954 -0.19028953 0.95600003 1.1336472e-38
0.022761906 -0.19028953 0.95600003 5.5310091e-39
0.024582857 -0.19028953 0.95600003 2.0275752e-39
0.026486667 -0.19088668 0.95900005 4.4243337e-39
0.028401908 -0.19148383 0.96200007 5.8072681e-39
0.030234287 -0.19148383 0.96200007 5.9912838e-39
0.032133333 -0.19188191 0.96400005 5.8990882e-39
0.033969525 -0.19188191 0.96400005 5.9909335e-39
0.035917144 -0.19247906 0.96700007 5.9909335e-39
0.037759051 -0.19247906 0.96700007 5.7150725e-39
0.039600953 -0.19247906 0.96700007 5.8072681e-39
0.041571431 -0.19307619 0.97000003 5.8072681e-39
0.043419048 -0.19307619 0.97000003 5.8994637e-39
0.045266669 -0.19307619 0.97000003 6.1749716e-39
0.047260001 -0.19367334 0.97300005 6.1749716e-39
0.049214289 -0.19407144 0.97500002 5.8054857e-39
0.051228572 -0.19466858 0.97800004 3.8693774e-39
0.052928571 -0.19407144 0.97500002 7.6432241e-39
0.054785714 -0.19407144 0.97500002 1.4742288e-38
-0.096161902 -0.17309143 0.87800002 1.8619945e-38
-0.09448953 -0.17309143 0.87800002 9.2159911e-39
-0.092817143 -0.17309143 0.87800002 1.4625772e-38
-0.091352388 -0.17348573 0.88000005 1.573212e-38
-0.089676194 -0.17348573 0.88000005 1.4623917e-38
-0.088000007 -0.17348573 0.88000005 1.204244e-38
-0.086323813 -0.17348573 0.88000005 1.4153176e-38
-0.084647626 -0.17348573 0.88000005 1.470635e-38
-0.082971431 -0.17348573 0.88000005 1.3418125e-38
-0.081295244 -0.17348573 0.88000005 1.3141538e-38
-0.079800002 -0.17388 0.88200003 1.3141523e-38
-0.078120001 -0.17388 0.88200003 1.6644957e-38
-0.076700002 -0.17447144 0.88500005 1.4998711e-38
-0.075183809 -0.17486572 0.88700002 1.628945e-38
-0.073660001 -0.17526001 0.88900006 1.5923521e-38
-0.072371431 -0.17624572 0.89400005 1.6200107e-38
-0.070668571 -0.17624572 0.89400005 1.5004122e-38
-0.068965718 -0.17624572 0.89400005 1.4266557e-38
-0.067413338 -0.17664 0.89600003 1.4447017e-38
-0.06570667 -0.17664 0.89600003 1.4631408e-38
-0.064000003 -0.17664 0.89600003 1.3885567e-38
-0.062432382 -0.1770343 0.89800006 1.3885567e-38
-0.060721908 -0.1770343 0.89800006 1.3244145e-38
-0.059011433 -0.1770343 0.89800006 1.1492428e-38
-0.057492379 -0.17762572 0.90100002 7.5434251e-39
-0.055776194 -0.17762572 0.90100002 3.3979134e-39
-0.023095237 -0.19122858 0.97000003 8.6653326e-39
-0.02124762 -0.19122858 0.97000003 5.8094191e-39
-0.019400001 -0.19122858 0.97000003 1.8548567e-40
-0.017552381 -0.19122858 0.97000003 1.1986048e-39
-0.015704762 -0.19122858 0.97000003 1.8439743e-39
-0.013857143 -0.19122858 0.97000003 2.3038342e-39
-0.012009524 -0.19122858 0.97000003 2.9492036e-39
-0.010161905 -0.19122858 0.97000003 3.1335976e-39
-0.0083142864 -0.19122858 0.97000003 2.8570107e-39
-0.006446667 -0.19063714 0.96700007 2.5811273e-39
-0.0046047624 -0.19063714 0.96700007 1.9357579e-39
-0.0027314285 -0.18846858 0.95600003 3.5913136e-39
-0.00090571429 -0.18748286 0.95100003 8.4776819e-39
0.00090285722 -0.18689144 0.94800007 7.5600697e-39
0.0027085717 -0.18689144 0.94800007 5.8083527e-39
0.0045142858 -0.18689144 0.94800007 5.9909335e-39
0.0063200006 -0.18689144 0.94800007 7.7426505e-39
0.008125715 -0.18689144 0.94800007 8.8489826e-39
0.0099314293 -0.18689144 0.94800007 8.6645913e-39
0.011774287 -0.18748286 0.95100003 7.1019502e-39
0.013585715 -0.18748286 0.95100003 9.7756234e-39
0.015445715 -0.18807429 0.95400006 1.152516e-38
0.017299049 -0.18846858 0.95600003 1.7149093e-38
0.01912 -0.18846858 0.95600003 1.7422854e-38
0.020940954 -0.18846858 0.95600003 8.3876822e-39
0.022761906 -0.18846858 0.95600003 2.6725817e-39
0.024582857 -0.18846858 0.95600003 4.332103e-39
0.026486667 -0.18906002 0.95900005 5.1618987e-39
0.028401908 -0.18965144 0.96200007 5.5306812e-39
0.030234287 -0.18965144 0.96200007 5.8987379e-39
0.032133333 -0.19004571 0.96400005 5.8065422e-39
0.033969525 -0.19004571 0.96400005 5.8068926e-39
0.035917144 -0.19063714 0.96700007 5.9912838e-39
0.037759051 -0.19063714 0.96700007 5.8076212e-39
0.039600953 -0.19063714 0.96700007 5.8076212e-39
0.041571431 -0.19122858 0.97000003 5.9916594e-39
0.043419048 -0.19122858 0.97000003 6.083855e-39
0.045266669 -0.19122858 0.97000003 6.0842081e-39
0.047260001 -0.19182001 0.97300005 6.0842081e-39
0.049214289 -0.1922143 0.97500002 5.8991134e-39
0.051228572 -0.19280572 0.97800004 3.7786139e-39
0.053091429 -0.19280572 0.97800004 6.6265148e-39
0.054954287 -0.19280572 0.97800004 1.4094361e-38
-0.098279998 -0.17220001 0.88200003 2.1941491e-38
-0.096380956 -0.17180952 0.88000005 1.9821016e-38
-0.09448953 -0.17141905 0.87800002 1.7700517e-38
-0.092817143 -0.17141905 0.87800002 1.8251945e-38
-0.091352388 -0.17180952 0.88000005 1.4656321e-38
-0.089676194 -0.17180952 0.88000005 1.3905427e-38
-0.088000007 -0.17180952 0.88000005 7.820515e-39
-0.086323813 -0.17180952 0.88000005 1.111608e-38
-0.084647626 -0.17180952 0.88000005 1.1945841e-38
-0.082971431 -0.17180952 0.88000005 1.2221036e-38
-0.081295244 -0.17180952 0.88000005 1.2682015e-38
-0.079800002 -0.17220001 0.88200003 1.2590157e-38
-0.078120001 -0.17220001 0.88200003 1.2774548e-38
-0.076700002 -0.17278571 0.88500005 1.3141513e-38
-0.075183809 -0.1731762 0.88700002 1.3602491e-38
-0.073660001 -0.17356667 0.88900006 1.3051122e-38
-0.072371431 -0.17454286 0.89400005 1.3051122e-38
-0.070668571 -0.17454286 0.89400005 1.2777062e-38
-0.068965718 -0.17454286 0.89400005 1.3053649e-38
-0.067413338 -0.17493334 0.89600003 1.3145507e-38
-0.06570667 -0.17493334 0.89600003 1.286892e-38
-0.064000003 -0.17493334 0.89600003 1.3418478e-38
-0.062432382 -0.17532381 0.89800006 1.4617021e-38
-0.060721908 -0.17532381 0.89800006 1.2509097e-38
-0.059011433 -0.17532381 0.89800006 9.0056632e-39
-0.057300955 -0.17532381 0.89800006 6.2548877e-39
-0.055900004 -0.1763 0.90300006 8.7441697e-39
-0.02124762 -0.18938096 0.97000003 1.2535767e-38
-0.019400001 -0.18938096 0.97000003 1.1152832e-38
-0.017552381 -0.18938096 0.97000003 8.6642831e-39
-0.015704762 -0.18938096 0.97000003 4.6076753e-39
-0.013857143 -0.18938096 0.97000003 2.7737722e-40
-0.012046667 -0.18996668 0.97300005 6.4615974e-40
-0.010193334 -0.18996668 0.97300005 1.1082043e-39
-0.0083400002 -0.18996668 0.97300005 2.0301606e-39
-0.0064866669 -0.18996668 0.97300005 2.3975012e-39
-0.004619048 -0.18938096 0.97000003 2.5818924e-39
-0.0027628574 -0.18879525 0.96700007 3.3165442e-39
-0.0009104762 -0.18664762 0.95600003 3.1321529e-39
0.00090571429 -0.18567143 0.95100003 3.2243485e-39
0.0027171429 -0.18567143 0.95100003 3.593131e-39
0.0045142858 -0.18508573 0.94800007 3.5931535e-39
0.0063200006 -0.18508573 0.94800007 4.2385229e-39
0.0081514288 -0.18567143 0.95100003 5.0707344e-39
0.0099628577 -0.18567143 0.95100003 7.3756252e-39
0.011774287 -0.18567143 0.95100003 8.0206919e-39
0.013585715 -0.18567143 0.95100003 8.3894744e-39
0.015445715 -0.18625715 0.95400006 7.926676e-39
0.017299049 -0.18664762 0.95600003 7.7422847e-39
0.01912 -0.18664762 0.95600003 7.9248963e-39
0.020940954 -0.18664762 0.95600003 6.1731794e-39
0.022761906 -0.18664762 0.95600003 5.5317756e-39
0.024660001 -0.18723334 0.95900005 4.7942106e-39
0.026486667 -0.18723334 0.95900005 5.1611952e-39
0.028401908 -0.18781906 0.96200007 5.5299778e-39
0.030234287 -0.18781906 0.96200007 5.5306812e-39
0.032133333 -0.18820953 0.96400005 5.4384856e-39
0.034075242 -0.18879525 0.96700007 5.5306588e-39
0.035917144 -0.18879525 0.96700007 5.8072457e-39
0.037759051 -0.18879525 0.96700007 5.8076212e-39
0.039723814 -0.18938096 0.97000003 5.8076212e-39
0.041571431 -0.18938096 0.97000003 5.8998169e-39
0.043419048 -0.18938096 0.97000003 5.9920125e-39
0.045406669 -0.18996668 0.97300005 6.1756751e-39
0.047357146 -0.19035713 0.97500002 6.1756751e-39
0.049365718 -0.19094285 0.97800004 6.0842081e-39
0.051228572 -0.19094285 0.97800004 4.9778606e-39
0.053091429 -0.19094285 0.97800004 5.2501216e-39
0.054785714 -0.19035713 0.97500002 8.2925774e-39
0.05664286 -0.19035713 0.97500002 1.1977147e-38
-0.1003 -0.17110001 0.88500005 2.2310273e-38
-0.098057151 -0.17013335 0.88000005 2.1941491e-38
-0.096380956 -0.17013335 0.88000005 2.0284518e-38
-0.09448953 -0.16974667 0.87800002 1.6781084e-38
-0.092817143 -0.16974667 0.87800002 1.5682344e-38
-0.091352388 -0.17013335 0.88000005 1.0980377e-38
-0.089472376 -0.16974667 0.87800002 1.0326739e-38
-0.087800004 -0.16974667 0.87800002 5.2559791e-39
-0.086127624 -0.16974667 0.87800002 9.8336484e-39
-0.084455237 -0.16974667 0.87800002 1.1216583e-38
-0.083159998 -0.17052001 0.88200003 1.1487422e-38
-0.081479996 -0.17052001 0.88200003 1.1118639e-38
-0.079800002 -0.17052001 0.88200003 1.2406835e-38
-0.078385718 -0.17110001 0.88500005 1.2683421e-38
-0.076873332 -0.17148668 0.88700002 1.3048967e-38
-0.075183809 -0.17148668 0.88700002 1.3141163e-38
-0.073494285 -0.17148668 0.88700002 1.2957487e-38
-0.072128572 -0.17226 0.89100003 1.2957487e-38
-0.070668571 -0.17284001 0.89400005 1.3141888e-38
-0.068965718 -0.17284001 0.89400005 1.3234084e-38
-0.067262866 -0.17284001 0.89400005 1.3234813e-38
-0.06570667 -0.17322667 0.89600003 1.3050422e-38
-0.06414286 -0.17361334 0.89800006 1.3142967e-38
-0.062640958 -0.17419334 0.90100002 1.4433706e-38
-0.060721908 -0.17361334 0.89800006 1.1681499e-38
-0.059011433 -0.17361334 0.89800006 6.7958477e-39
-0.057300955 -0.17361334 0.89800006 3.0316476e-39
-0.055900004 -0.17458001 0.90300006 1.3634141e-38
-0.02302381 -0.18695334 0.96700007 1.437642e-38
-0.021181906 -0.18695334 0.96700007 1.4834508e-38
-0.019340001 -0.18695334 0.96700007 1.4004748e-38
-0.017498096 -0.18695334 0.96700007 1.2257009e-38
-0.015656192 -0.18695334 0.96700007 8.4769883e-39
-0.013857143 -0.18753333 0.97000003 5.6218203e-39
-0.012046667 -0.18811335 0.97300005 8.2764751e-40
-0.010193334 -0.18811335 0.97300005 8.2982233e-40
-0.008357143 -0.1885 0.97500002 1.2908005e-39
-0.0065000001 -0.1885 0.97500002 1.659171e-39
-0.0046333335 -0.18811335 0.97300005 2.9499098e-39
-0.0027714286 -0.18753333 0.97000003 4.1466706e-39
-0.00091333338 -0.18540668 0.95900005 3.777888e-39
0.0009104762 -0.18482667 0.95600003 3.8697151e-39
0.0027257146 -0.18444002 0.95400006 4.3306933e-39
0.0045428574 -0.18444002 0.95400006 4.1473712e-39
0.0063399998 -0.18386 0.95100003 3.3176105e-39
0.0081514288 -0.18386 0.95100003 4.2391661e-39
0.0099628577 -0.18386 0.95100003 5.253318e-39
0.011774287 -0.18386 0.95100003 6.9110849e-39
0.013585715 -0.18386 0.95100003 8.4784106e-39
0.015445715 -0.18444002 0.95400006 8.1139217e-39
0.017299049 -0.18482667 0.95600003 7.3763566e-39
0.01912 -0.18482667 0.95600003 7.1909312e-39
0.020940954 -0.18482667 0.95600003 6.6377574e-39
0.022833334 -0.18540668 0.95900005 6.9143219e-39
0.024660001 -0.18540668 0.95900005 6.4533438e-39
0.026486667 -0.18540668 0.95900005 5.7161641e-39
0.028460953 -0.18637335 0.96400005 5.2551859e-39
0.030297145 -0.18637335 0.96400005 5.5296022e-39
0.032133333 -0.18637335 0.96400005 5.7139935e-39
0.034075242 -0.18695334 0.96700007 5.7154256e-39
0.035917144 -0.18695334 0.96700007 5.7154256e-39
0.037759051 -0.18695334 0.96700007 5.8998169e-39
0.039723814 -0.18753333 0.97000003 5.9920125e-39
0.041571431 -0.18753333 0.97000003 6.1753247e-39
0.043419048 -0.18753333 0.97000003 6.1753247e-39
0.045639999 -0.18908001 0.97800004 6.1753247e-39
0.04750286 -0.18908001 0.97800004 6.1753247e-39
0.049517147 -0.18966001 0.98100007 6.1764037e-39
0.051228572 -0.18908001 0.97800004 5.3466431e-39
0.053091429 -0.18908001 0.97800004 2.9538727e-39
0.054785714 -0.1885 0.97500002 5.7197416e-39
0.05664286 -0.1885 0.97500002 9.6769286e-39
-0.1003 -0.1694143 0.88500005 2.2403188e-38
-0.098057151 -0.16845715 0.88000005 1.9452928e-38
-0.096380956 -0.16845715 0.88000005 1.6692176e-38
-0.09448953 -0.16807428 0.87800002 1.5770228e-38
-0.092817143 -0.16807428 0.87800002 1.5499032e-38
-0.091144763 -0.16807428 0.87800002 1.0336087e-38
-0.089472376 -0.16807428 0.87800002 1.0238115e-38
-0.087800004 -0.16807428 0.87800002 5.8127248e-39
-0.086127624 -0.16807428 0.87800002 8.9232332e-39
-0.084455237 -0.16807428 0.87800002 9.7529939e-39
-0.082971431 -0.16845715 0.88000005 1.1216223e-38
-0.081479996 -0.16884001 0.88200003 1.0939636e-38
-0.080071434 -0.1694143 0.88500005 1.2315715e-38
-0.078562863 -0.16979714 0.88700002 1.2315715e-38
-0.076873332 -0.16979714 0.88700002 1.286745e-38
-0.075183809 -0.16979714 0.88700002 1.3144037e-38
-0.073494285 -0.16979714 0.88700002 1.3144763e-38
-0.072128572 -0.17056286 0.89100003 1.3144763e-38
-0.070668571 -0.17113715 0.89400005 1.3051498e-38
-0.068965718 -0.17113715 0.89400005 1.2959302e-38
-0.067262866 -0.17113715 0.89400005 1.3051138e-38
-0.06570667 -0.17152001 0.89600003 1.2958942e-38
-0.06414286 -0.17190287 0.89800006 1.286603e-38
-0.062640958 -0.17247714 0.90100002 1.4156769e-38
-0.060721908 -0.17190287 0.89800006 1.1500315e-38
-0.059011433 -0.17190287 0.89800006 5.7856363e-39
-0.057300955 -0.17190287 0.89800006 3.7667603e-39
-0.02302381 -0.18511145 0.96700007 1.4468603e-38
-0.021181906 -0.18511145 0.96700007 1.5020309e-38
-0.019340001 -0.18511145 0.96700007 1.5573483e-38
-0.017498096 -0.18511145 0.96700007 1.4929954e-38
-0.015656192 -0.18511145 0.96700007 1.5298736e-38
-0.013857143 -0.18568571 0.97000003 1.4656221e-38
-0.012046667 -0.18626001 0.97300005 1.1613765e-38
-0.010193334 -0.18626001 0.97300005 8.3883926e-39
-0.008357143 -0.18664286 0.97500002 3.6864155e-39
-0.0065000001 -0.18664286 0.97500002 2.4928539e-39
-0.0046428572 -0.18664286 0.97500002 3.1382233e-39
-0.0027800002 -0.18626001 0.97300005 4.4250777e-39
-0.00092095241 -0.18511145 0.96700007 4.4250777e-39
0.00092095241 -0.18511145 0.96700007 4.7009205e-39
0.0027400001 -0.18358 0.95900005 4.7009205e-39
0.0045523811 -0.18300572 0.95600003 4.1484502e-39
0.0063600005 -0.18262286 0.95400006 2.1201464e-39
0.0081771435 -0.18262286 0.95400006 3.0399937e-39
0.0099942861 -0.18262286 0.95400006 4.1463413e-39
0.011811429 -0.18262286 0.95400006 4.4250119e-39
0.013628571 -0.18262286 0.95400006 5.0703813e-39
0.015445715 -0.18262286 0.95400006 6.3610711e-39
0.017299049 -0.18300572 0.95600003 8.2971793e-39
0.01912 -0.18300572 0.95600003 8.7568248e-39
0.020940954 -0.18300572 0.95600003 8.8490204e-39
0.022833334 -0.18358 0.95900005 8.8507833e-39
0.024660001 -0.18358 0.95900005 9.4961527e-39
0.026569527 -0.1841543 0.96200007 8.8507679e-39
0.028460953 -0.18453714 0.96400005 6.4536815e-39
0.030297145 -0.18453714 0.96400005 5.1619281e-39
0.032133333 -0.18453714 0.96400005 5.3463194e-39
0.034075242 -0.18511145 0.96700007 5.6225293e-39
0.036028571 -0.18568571 0.97000003 5.8069206e-39
0.037876189 -0.18568571 0.97000003 5.7154256e-39
0.039723814 -0.18568571 0.97000003 5.9920125e-39
0.041785713 -0.18664286 0.97500002 6.1753247e-39
0.043777145 -0.18721715 0.97800004 6.2675204e-39
0.045639999 -0.18721715 0.97800004 6.2675204e-39
0.04750286 -0.18721715 0.97800004 6.0831291e-39
0.049517147 -0.18779144 0.98100007 5.6235803e-39
0.051228572 -0.18721715 0.97800004 4.6094284e-39
0.053091429 -0.18721715 0.97800004 3.7811152e-39
0.054785714 -0.18664286 0.97500002 6.7313754e-39
0.05664286 -0.18664286 0.97500002 1.0226926e-38
-0.1003 -0.16772857 0.88500005 2.2588295e-38
-0.098057151 -0.16678096 0.88000005 1.4290688e-38
-0.096380956 -0.16678096 0.88000005 1.2271078e-38
-0.09448953 -0.16640191 0.87800002 1.328523e-38
-0.092817143 -0.16640191 0.87800002 1.2643522e-38
-0.091144763 -0.16640191 0.87800002 9.2322952e-39
-0.089472376 -0.16640191 0.87800002 7.2961519e-39
-0.087800004 -0.16640191 0.87800002 3.3317398e-39
-0.086127624 -0.16640191 0.87800002 7.6414795e-39
-0.084455237 -0.16640191 0.87800002 8.1946533e-39
-0.082971431 -0.16678096 0.88000005 1.0759179e-38
-0.081757143 -0.16772857 0.88500005 1.0298201e-38
-0.080071434 -0.16772857 0.88500005 1.2039128e-38
-0.078562863 -0.16810761 0.88700002 1.2039128e-38
-0.076873332 -0.16810761 0.88700002 1.2407195e-38
-0.075183809 -0.16810761 0.88700002 1.3236955e-38
-0.073494285 -0.16810761 0.88700002 1.2961806e-38
-0.072128572 -0.16886571 0.89100003 1.2685219e-38
-0.070668571 -0.16943429 0.89400005 1.3051138e-38
-0.068965718 -0.16943429 0.89400005 1.341992e-38
-0.067262866 -0.16943429 0.89400005 1.3051138e-38
-0.06570667 -0.16981333 0.89600003 1.3143333e-38
-0.06414286 -0.17019239 0.89800006 1.2961806e-38
-0.062640958 -0.17076096 0.90100002 1.3883763e-38
-0.060924761 -0.17076096 0.90100002 1.0483324e-38
-0.059208572 -0.17076096 0.90100002 5.510141e-39
-0.019340001 -0.18326953 0.96700007 1.5204704e-38
-0.017498096 -0.18326953 0.96700007 1.5112896e-38
-0.015656192 -0.18326953 0.96700007 1.5573874e-38
-0.013857143 -0.1838381 0.97000003 1.5574244e-38
-0.012071429 -0.18478572 0.97500002 1.4744483e-38
-0.010214286 -0.18478572 0.97500002 1.1798908e-38
-0.0083828568 -0.18535429 0.97800004 9.1252346e-39
-0.0065000001 -0.18478572 0.97500002 4.3397331e-39
-0.0046428572 -0.18478572 0.97500002 3.2333855e-39
-0.0027800002 -0.18440668 0.97300005 3.0478662e-39
-0.00092380954 -0.1838381 0.97000003 3.9698225e-39
0.00092095241 -0.18326953 0.96700007 4.9775074e-39
0.0027485716 -0.18232192 0.96200007 4.9775074e-39
0.0045666667 -0.18175334 0.95900005 4.1502481e-39
0.0063733337 -0.18118477 0.95600003 1.7531617e-39
0.0081942854 -0.18118477 0.95600003 2.3034838e-39
0.0099942861 -0.18080571 0.95400006 3.3176358e-39
0.011811429 -0.18080571 0.95400006 3.872194e-39
0.013628571 -0.18080571 0.95400006 4.1487809e-39
0.015445715 -0.18080571 0.95400006 4.9767367e-39
0.017299049 -0.18118477 0.95600003 7.0050406e-39
0.01912 -0.18118477 0.95600003 7.7433665e-39
0.020940954 -0.18118477 0.95600003 8.5731272e-39
0.022833334 -0.18175334 0.95900005 8.9433292e-39
0.024660001 -0.18175334 0.95900005 9.8652855e-39
0.026569527 -0.18232192 0.96200007 9.6805692e-39
0.028460953 -0.18270096 0.96400005 7.2834828e-39
0.030297145 -0.18270096 0.96400005 6.3615265e-39
0.032133333 -0.18270096 0.96400005 5.992744e-39
0.034075242 -0.18326953 0.96700007 5.8069178e-39
0.036028571 -0.1838381 0.97000003 5.8069178e-39
0.037876189 -0.1838381 0.97000003 5.9909335e-39
0.039846666 -0.18440668 0.97300005 5.9909335e-39
0.041785713 -0.18478572 0.97500002 6.0834794e-39
0.043777145 -0.18535429 0.97800004 6.1756751e-39
0.045639999 -0.18535429 0.97800004 6.1756751e-39
0.047648571 -0.18592286 0.98100007 5.8068926e-39
0.049517147 -0.18592286 0.98100007 5.4391638e-39
0.051228572 -0.18535429 0.97800004 4.2406206e-39
0.053091429 -0.18535429 0.97800004 4.1480747e-39
0.054954287 -0.18535429 0.97800004 7.7437042e-39
0.056817144 -0.18535429 0.97800004 1.2529983e-38
0.058680002 -0.18535429 0.97800004 1.5756831e-38
0.060542859 -0.18535429 0.97800004 1.4561512e-38
-0.098057151 -0.16510478 0.88000005 1.207799e-38
-0.096161902 -0.16472952 0.87800002 1.1377002e-39
-0.09448953 -0.16472952 0.87800002 1.1377002e-39
-0.092817143 -0.16472952 0.87800002 2.6082635e-39
-0.091144763 -0.16472952 0.87800002 3.4380241e-39
-0.089472376 -0.16472952 0.87800002 7.9360913e-39
-0.087800004 -0.16472952 0.87800002 4.8014399e-39
-0.086127624 -0.16472952 0.87800002 6.9100311e-39
-0.084647626 -0.16510478 0.88000005 7.0944224e-39
-0.083159998 -0.16548002 0.88200003 9.8436775e-39
-0.081757143 -0.16604286 0.88500005 9.474895e-39
-0.080252379 -0.16641809 0.88700002 1.1487765e-38
-0.078562863 -0.16641809 0.88700002 1.1856547e-38
-0.076873332 -0.16641809 0.88700002 1.213169e-38
-0.075183809 -0.16641809 0.88700002 1.2684863e-38
-0.073494285 -0.16641809 0.88700002 1.2593024e-38
-0.072128572 -0.16716857 0.89100003 1.2593024e-38
-0.070668571 -0.16773143 0.89400005 1.2775995e-38
-0.068965718 -0.16773143 0.89400005 1.2868191e-38
-0.067413338 -0.16810668 0.89600003 1.2868541e-38
-0.06570667 -0.16810668 0.89600003 1.268415e-38
-0.06414286 -0.1684819 0.89800006 1.2869961e-38
-0.062640958 -0.16904476 0.90100002 1.3976308e-38
-0.060924761 -0.16904476 0.90100002 1.0302555e-38
-0.059208572 -0.16904476 0.90100002 4.0407857e-39
-0.010245714 -0.18349144 0.97800004 1.4469694e-38
-0.0083828568 -0.18349144 0.97800004 1.4746281e-38
-0.0065000001 -0.18292858 0.97500002 1.0785871e-38
-0.0046428572 -0.18292858 0.97500002 4.2399816e-39
-0.0027800002 -0.18255335 0.97300005 1.666724e-39
-0.00092380954 -0.18199049 0.97000003 3.418441e-39
0.00092095241 -0.18142763 0.96700007 3.5953171e-39
0.0027485716 -0.18048953 0.96200007 3.4109258e-39
0.0045666667 -0.17992666 0.95900005 2.6758411e-39
0.0063733337 -0.1793638 0.95600003 8.3192848e-40
0.0081942854 -0.1793638 0.95600003 1.8425085e-39
0.0099942861 -0.17898858 0.95400006 2.3034866e-39
0.011811429 -0.17898858 0.95400006 2.4871338e-39
0.013628571 -0.17898858 0.95400006 3.4090901e-39
0.015445715 -0.17898858 0.95400006 3.5931282e-39
0.017299049 -0.1793638 0.95600003 3.7775195e-39
0.01912 -0.1793638 0.95600003 3.0424964e-39
0.021006668 -0.17992666 0.95900005 4.4254309e-39
0.022833334 -0.17992666 0.95900005 5.8079716e-39
0.024660001 -0.17992666 0.95900005 8.6660361e-39
0.026569527 -0.18048953 0.96200007 9.4039823e-39
0.028460953 -0.18086477 0.96400005 8.7586129e-39
0.030297145 -0.18086477 0.96400005 8.3898247e-39
0.032133333 -0.18086477 0.96400005 8.3898247e-39
0.034075242 -0.18142763 0.96700007 7.6522401e-39
0.036028571 -0.18199049 0.97000003 5.8083275e-39
0.037876189 -0.18199049 0.97000003 5.7154256e-39
0.039846666 -0.18255335 0.97300005 5.4388387e-39
0.041785713 -0.18292858 0.97500002 4.9771319e-39
0.043777145 -0.18349144 0.97800004 4.5161537e-39
0.045639999 -0.18349144 0.97800004 5.2498035e-39
0.047648571 -0.1840543 0.98100007 6.8171293e-39
0.049517147 -0.1840543 0.98100007 8.2021334e-39
0.051385716 -0.1840543 0.98100007 9.4006766e-39
0.053091429 -0.18349144 0.97800004 1.1056636e-38
0.054954287 -0.18349144 0.97800004 1.4652265e-38
0.056817144 -0.18349144 0.97800004 1.5113619e-38
0.058680002 -0.18349144 0.97800004 1.5205815e-38
0.060542859 -0.18349144 0.97800004 1.4652271e-38
-0.096161902 -0.16305715 0.87800002 6.4671045e-39
-0.09448953 -0.16305715 0.87800002 2.3183012e-39
-0.092817143 -0.16305715 0.87800002 8.4968013e-40
-0.091144763 -0.16305715 0.87800002 3.615549e-39
-0.089472376 -0.16305715 0.87800002 7.3789841e-39
-0.087800004 -0.16305715 0.87800002 5.7194627e-39
-0.086323813 -0.16342857 0.88000005 5.901647e-39
-0.08484 -0.1638 0.88200003 6.1782338e-39
-0.083442859 -0.16435716 0.88500005 1.0033534e-38
-0.081757143 -0.16435716 0.88500005 9.9413382e-39
-0.080252379 -0.16472858 0.88700002 1.1216923e-38
-0.078740001 -0.16510001 0.88900006 1.1124728e-38
-0.07704667 -0.16510001 0.88900006 1.1949454e-38
-0.075353332 -0.16510001 0.88900006 1.2133845e-38
-0.073660001 -0.16510001 0.88900006 1.2408279e-38
-0.072128572 -0.16547143 0.89100003 1.3145844e-38
-0.070668571 -0.16602859 0.89400005 1.2685252e-38
-0.068965718 -0.16602859 0.89400005 1.2408665e-38
-0.067413338 -0.1664 0.89600003 1.2776346e-38
-0.06570667 -0.1664 0.89600003 1.2868541e-38
-0.064000003 -0.1664 0.89600003 1.2869618e-38
-0.062432382 -0.16677144 0.89800006 1.3975965e-38
-0.060924761 -0.16732858 0.90100002 9.6564598e-39
-0.059208572 -0.16732858 0.90100002 4.7754724e-39
-0.0046571433 -0.18162857 0.97800004 7.2813444e-39
-0.0027800002 -0.18070002 0.97300005 2.3070137e-39
-0.00092380954 -0.18014286 0.97000003 2.9523831e-39
0.00092095241 -0.17958573 0.96700007 2.124475e-39
0.0027485716 -0.17865716 0.96200007 2.2166706e-39
0.0045809527 -0.17865716 0.96200007 2.3053055e-39
0.0063933334 -0.1781 0.95900005 1.198958e-39
0.0081942854 -0.17754287 0.95600003 1.1063476e-39
0.010015239 -0.17754287 0.95600003 2.0283039e-39
0.011836191 -0.17754287 0.95600003 2.8559163e-39
0.013657142 -0.17754287 0.95600003 3.1325032e-39
0.015478096 -0.17754287 0.95600003 3.5027305e-39
0.017299049 -0.17754287 0.95600003 2.8573611e-39
0.019180002 -0.1781 0.95900005 1.938276e-39
0.021006668 -0.1781 0.95900005 1.6616891e-39
0.022904763 -0.17865716 0.96200007 2.9509328e-39
0.024737146 -0.17865716 0.96200007 7.9294912e-39
0.026624763 -0.17902859 0.96400005 8.8504526e-39
0.028460953 -0.17902859 0.96400005 8.6660613e-39
0.030297145 -0.17902859 0.96400005 8.574216e-39
0.032233335 -0.17958573 0.96700007 8.6664116e-39
0.034075242 -0.17958573 0.96700007 8.7575283e-39
0.036028571 -0.18014286 0.97000003 6.7292244e-39
0.037876189 -0.18014286 0.97000003 6.5422996e-39
0.039846666 -0.18070002 0.97300005 5.8969302e-39
0.041785713 -0.18107143 0.97500002 4.977485e-39
0.043777145 -0.18162857 0.97800004 5.5306588e-39
0.045639999 -0.18162857 0.97800004 7.3698897e-39
0.04750286 -0.18162857 0.97800004 8.6606285e-39
0.049365718 -0.18162857 0.97800004 1.0410162e-38
0.051385716 -0.18218572 0.98100007 1.0594553e-38
0.053254288 -0.18218572 0.98100007 1.3542298e-38
0.055122864 -0.18218572 0.98100007 1.667695e-38
0.056991432 -0.18218572 0.98100007 1.566679e-38
0.058860004 -0.18218572 0.98100007 1.4837029e-38
-0.096161902 -0.16138478 0.87800002 1.5861352e-38
-0.09448953 -0.16138478 0.87800002 1.0053038e-38
-0.092817143 -0.16138478 0.87800002 7.2013737e-39
-0.091144763 -0.16138478 0.87800002 7.385765e-39
-0.089472376 -0.16138478 0.87800002 8.578937e-39
-0.087800004 -0.16138478 0.87800002 5.7208724e-39
-0.086323813 -0.16175239 0.88000005 5.0773107e-39
-0.08484 -0.16212001 0.88200003 6.1836583e-39
-0.083442859 -0.16267143 0.88500005 8.9365736e-39
-0.081757143 -0.16267143 0.88500005 8.1068129e-39
-0.080252379 -0.16303906 0.88700002 1.0210703e-38
-0.078740001 -0.16340667 0.88900006 9.657529e-39
-0.07704667 -0.16340667 0.88900006 1.148991e-38
-0.075353332 -0.16340667 0.88900006 1.148991e-38
-0.073660001 -0.16340667 0.88900006 1.2039159e-38
-0.072371431 -0.16432571 0.89400005 1.3422094e-38
-0.070668571 -0.16432571 0.89400005 1.296328e-38
-0.068965718 -0.16432571 0.89400005 1.2041324e-38
-0.067413338 -0.16469334 0.89600003 1.2682362e-38
-0.06570667 -0.16469334 0.89600003 1.3051145e-38
-0.064000003 -0.16469334 0.89600003 1.2961466e-38
-0.062432382 -0.16506097 0.89800006 1.3791226e-38
-0.060721908 -0.16506097 0.89800006 1.0298242e-38
-0.059208572 -0.16561238 0.90100002 7.0713949e-39
0.0045809527 -0.17682478 0.96200007 1.0138665e-38
0.0063933334 -0.17627333 0.95900005 6.9118178e-39
0.0081942854 -0.17572191 0.95600003 2.6779514e-39
0.010015239 -0.17572191 0.95600003 1.8869325e-40
0.011836191 -0.17572191 0.95600003 7.3977489e-40
0.013657142 -0.17572191 0.95600003 7.3977489e-40
0.015478096 -0.17572191 0.95600003 1.9318539e-39
0.017353334 -0.17627333 0.95900005 2.8538102e-39
0.019240001 -0.17682478 0.96200007 2.0254494e-39
0.021072382 -0.17682478 0.96200007 1.1034931e-39
0.022904763 -0.17682478 0.96200007 2.2069722e-39
0.024788573 -0.17719238 0.96400005 5.986993e-39
0.026707619 -0.17774382 0.96700007 7.0976594e-39
0.028549524 -0.17774382 0.96700007 8.204007e-39
0.03039143 -0.17774382 0.96700007 8.2061397e-39
0.032233335 -0.17774382 0.96700007 8.2061397e-39
0.03418095 -0.17829524 0.97000003 8.5734873e-39
0.036028571 -0.17829524 0.97000003 8.4812917e-39
0.037993334 -0.17884669 0.97300005 9.1230542e-39
0.039846666 -0.17884669 0.97300005 1.1059162e-38
0.041785713 -0.17921428 0.97500002 1.3640213e-38
0.043777145 -0.17976573 0.97800004 1.5299734e-38
0.045639999 -0.17976573 0.97800004 1.4654423e-38
0.04750286 -0.17976573 0.97800004 1.4009054e-38
0.049365718 -0.17976573 0.97800004 1.4192013e-38
0.051228572 -0.17976573 0.97800004 1.4652991e-38
0.053254288 -0.18031715 0.98100007 1.5388376e-38
0.055122864 -0.18031715 0.98100007 1.6402528e-38
-0.092817143 -0.15971237 0.87800002 1.3462807e-38
-0.091144763 -0.15971237 0.87800002 1.1434503e-38
-0.089676194 -0.1600762 0.88000005 8.7647828e-39
-0.088000007 -0.1600762 0.88000005 5.3535445e-39
-0.086323813 -0.1600762 0.88000005 5.353927e-39
-0.08484 -0.16044 0.88200003 6.4602746e-39
-0.083442859 -0.16098572 0.88500005 7.5612299e-39
-0.081757143 -0.16098572 0.88500005 5.5329261e-39
-0.080252379 -0.16134953 0.88700002 9.0204483e-39
-0.078740001 -0.16171335 0.88900006 9.2048395e-39
-0.07704667 -0.16171335 0.88900006 1.1125078e-38
-0.075353332 -0.16171335 0.88900006 1.0848491e-38
-0.073660001 -0.16171335 0.88900006 1.1673595e-38
-0.072371431 -0.16262287 0.89400005 1.2872139e-38
-0.070668571 -0.16262287 0.89400005 1.2685612e-38
-0.068965718 -0.16262287 0.89400005 1.2224634e-38
-0.067413338 -0.16298667 0.89600003 1.2590875e-38
-0.06570667 -0.16298667 0.89600003 1.2959658e-38
-0.064000003 -0.16298667 0.89600003 1.2961466e-38
-0.062432382 -0.16335048 0.89800006 1.3791226e-38
-0.060721908 -0.16335048 0.89800006 1.0664857e-38
-0.059208572 -0.16389619 0.90100002 7.7145965e-39
0.0063933334 -0.17444667 0.95900005 1.0968426e-38
0.0081942854 -0.17390096 0.95600003 6.2747497e-39
0.010015239 -0.17390096 0.95600003 2.218142e-39
0.011836191 -0.17390096 0.95600003 9.4768414e-41
0.013657142 -0.17390096 0.95600003 4.9045446e-44
0.015526668 -0.17444667 0.95900005 7.3540143e-40
0.017353334 -0.17444667 0.95900005 7.0968957e-39
0.019240001 -0.1749924 0.96200007 8.4773667e-39
0.021072382 -0.1749924 0.96200007 7.3710191e-39
0.022904763 -0.1749924 0.96200007 6.5408605e-39
0.024788573 -0.17535619 0.96400005 6.1720779e-39
0.026707619 -0.1759019 0.96700007 4.8842552e-39
0.028549524 -0.1759019 0.96700007 7.3735372e-39
0.03039143 -0.1759019 0.96700007 7.7451616e-39
0.032233335 -0.1759019 0.96700007 6.5466184e-39
0.03418095 -0.17644762 0.97000003 7.0047001e-39
0.036140002 -0.17699334 0.97300005 6.9125044e-39
0.037993334 -0.17699334 0.97300005 9.4885815e-39
0.03992857 -0.17735715 0.97500002 1.1332494e-38
0.041785713 -0.17735715 0.97500002 1.4926319e-38
0.043777145 -0.17790286 0.97800004 1.6678036e-38
0.045639999 -0.17790286 0.97800004 1.6219591e-38
0.04750286 -0.17790286 0.97800004 1.4744461e-38
0.049365718 -0.17790286 0.97800004 1.4284565e-38
0.051228572 -0.17790286 0.97800004 1.4745543e-38
0.053091429 -0.17790286 0.97800004 1.5573499e-38
0.055122864 -0.17844859 0.98100007 1.6311064e-38
-0.091559999 -0.15876 0.88200003 1.0972041e-38
-0.089879997 -0.15876 0.88200003 4.8072301e-39
-0.088500001 -0.15930001 0.88500005 5.821382e-39
-0.086814292 -0.15930001 0.88500005 8.0283318e-39
-0.085128576 -0.15930001 0.88500005 8.6737012e-39
-0.083442859 -0.15930001 0.88500005 8.6701012e-39
-0.081757143 -0.15930001 0.88500005 5.5354498e-39
-0.080433331 -0.16002001 0.88900006 7.2712845e-39
-0.078917146 -0.16038001 0.89100003 6.8103063e-39
-0.07704667 -0.16002001 0.88900006 9.925128e-39
-0.075353332 -0.16002001 0.88900006 1.0754889e-38
-0.073825717 -0.16038001 0.89100003 1.1765791e-38
-0.072371431 -0.16091999 0.89400005 1.305653e-38
-0.070668571 -0.16091999 0.89400005 1.2871766e-38
-0.069120005 -0.16128001 0.89600003 1.2318592e-38
-0.067413338 -0.16128001 0.89600003 1.2777046e-38
-0.06570667 -0.16128001 0.89600003 1.2869242e-38
-0.064000003 -0.16128001 0.89600003 1.259268e-38
-0.062432382 -0.16164002 0.89800006 1.259268e-38
-0.060924761 -0.16218001 0.90100002 9.468854e-39
-0.059340004 -0.16254 0.90300006 6.061203e-39
0.011910477 -0.17316 0.96200007 7.5600416e-39
0.013742859 -0.17316 0.96200007 9.219563e-40
0.015575239 -0.17316 0.96200007 3.4058657e-39
0.01740762 -0.17316 0.96200007 1.3455189e-38
0.019240001 -0.17316 0.96200007 1.4376808e-38
0.021072382 -0.17316 0.96200007 1.5298764e-38
0.022904763 -0.17316 0.96200007 1.4193833e-38
0.024788573 -0.17352001 0.96400005 1.3732855e-38
0.026707619 -0.17406002 0.96700007 1.2904829e-38
0.028549524 -0.17406002 0.96700007 9.6779824e-39
0.03039143 -0.17406002 0.96700007 8.6670772e-39
0.032233335 -0.17406002 0.96700007 4.7026652e-39
0.03428667 -0.17514001 0.97300005 4.3356567e-39
0.036214288 -0.17550001 0.97500002 3.9668742e-39
0.038071431 -0.17550001 0.97500002 4.9753719e-39
0.03992857 -0.17550001 0.97500002 8.4788058e-39
0.041914288 -0.17604001 0.97800004 1.2072197e-38
0.043777145 -0.17604001 0.97800004 1.5206849e-38
0.045639999 -0.17604001 0.97800004 1.4837738e-38
0.04750286 -0.17604001 0.97800004 1.3915782e-38
0.049365718 -0.17604001 0.97800004 1.3547716e-38
0.051228572 -0.17604001 0.97800004 1.3363324e-38
0.053254288 -0.17658001 0.98100007 1.4193073e-38
0.055122864 -0.17658001 0.98100007 1.5391616e-38
0.056817144 -0.17604001 0.97800004 1.5115732e-38
0.058680002 -0.17604001 0.97800004 1.4470363e-38
-0.091559999 -0.15708001 0.88200003 1.0235569e-38
-0.089879997 -0.15708001 0.88200003 1.1266075e-39
-0.088700004 -0.15797047 0.88700002 3.5236939e-39
-0.087010473 -0.15797047 0.88700002 7.659524e-39
-0.085320957 -0.15797047 0.88700002 7.8439153e-39
-0.083442859 -0.15761429 0.88500005 7.2900353e-39
-0.081757143 -0.15761429 0.88500005 4.3397751e-39
-0.080614291 -0.15868285 0.89100003 5.9823407e-39
-0.078917146 -0.15868285 0.89100003 5.0603844e-39
-0.07722 -0.15868285 0.89100003 8.268796e-39
-0.075522862 -0.15868285 0.89100003 1.0481491e-38
-0.073825717 -0.15868285 0.89100003 1.1671097e-38
-0.072371431 -0.15921715 0.89400005 1.3422814e-38
-0.070668571 -0.15921715 0.89400005 1.3150158e-38
-0.069120005 -0.15957333 0.89600003 1.2689179e-38
-0.067413338 -0.15957333 0.89600003 1.2964322e-38
-0.06570667 -0.15957333 0.89600003 1.3240908e-38
-0.064000003 -0.15957333 0.89600003 1.2228564e-38
-0.062432382 -0.15992953 0.89800006 1.232076e-38
-0.061060004 -0.16082001 0.90300006 8.1841786e-39
0.017498096 -0.1722181 0.96700007 1.3361905e-38
0.019340001 -0.1722181 0.96700007 1.3826496e-38
0.021116192 -0.17168382 0.96400005 1.3918691e-38
0.022952382 -0.17168382 0.96400005 1.4009795e-38
0.024865715 -0.1722181 0.96700007 1.3825404e-38
0.026707619 -0.1722181 0.96700007 1.3641016e-38
0.028549524 -0.1722181 0.96700007 1.1981494e-38
0.03039143 -0.1722181 0.96700007 9.6798349e-39
0.032333333 -0.17275238 0.97000003 7.1905529e-39
0.034357142 -0.17364286 0.97500002 4.7041702e-39
0.036214288 -0.17364286 0.97500002 2.9524532e-39
0.038188573 -0.17417714 0.97800004 1.1160165e-39
0.04005143 -0.17417714 0.97800004 5.6335926e-39
0.041914288 -0.17417714 0.97800004 9.2181182e-39
0.043777145 -0.17417714 0.97800004 1.2998139e-38
0.045639999 -0.17417714 0.97800004 1.3916155e-38
0.04750286 -0.17417714 0.97800004 1.3455177e-38
0.049365718 -0.17417714 0.97800004 1.2626488e-38
0.051385716 -0.17471144 0.98100007 1.216551e-38
0.053254288 -0.17471144 0.98100007 1.2166576e-38
0.055122864 -0.17471144 0.98100007 1.3918293e-38
0.056817144 -0.17417714 0.97800004 1.4101615e-38
0.058680002 -0.17417714 0.97800004 1.400942e-38
-0.092079051 -0.15628095 0.88700002 1.4566932e-38
-0.090389527 -0.15628095 0.88700002 1.3121801e-39
-0.088900007 -0.15663335 0.88900006 1.8560198e-41
-0.087010473 -0.15628095 0.88700002 6.6097287e-40
-0.085320957 -0.15628095 0.88700002 2.1361029e-39
-0.083631434 -0.15628095 0.88700002 8.3880815e-39
-0.081941903 -0.15628095 0.88700002 1.0692972e-38
-0.080614291 -0.15698572 0.89100003 8.373026e-39
-0.079182863 -0.1575143 0.89400005 5.883744e-39
-0.077480003 -0.1575143 0.89400005 6.8894741e-39
-0.075777143 -0.1575143 0.89400005 6.9816697e-39
-0.074074291 -0.1575143 0.89400005 8.7269127e-39
-0.072371431 -0.1575143 0.89400005 9.3722821e-39
-0.070826672 -0.15786667 0.89600003 1.0564023e-38
-0.069120005 -0.15786667 0.89600003 1.148598e-38
-0.067413338 -0.15786667 0.89600003 1.0198856e-38
-0.06570667 -0.15786667 0.89600003 1.0383247e-38
-0.064000003 -0.15786667 0.89600003 8.0859069e-39
-0.062640958 -0.15874761 0.90100002 7.1639506e-39
-0.061060004 -0.15910001 0.90300006 3.9510983e-39
0.017606668 -0.17143333 0.97300005 9.3971201e-39
0.019400001 -0.17090477 0.97000003 1.0781138e-38
0.02124762 -0.17090477 0.97000003 1.0688942e-38
0.023095237 -0.17090477 0.97000003 1.069038e-38
0.028549524 -0.17037621 0.96700007 1.1889659e-38
0.03039143 -0.17037621 0.96700007 1.1614854e-38
0.032333333 -0.17090477 0.97000003 1.1430463e-38
0.034462858 -0.17231429 0.97800004 9.8628192e-39
0.036325715 -0.17231429 0.97800004 6.9125591e-39
0.038188573 -0.17231429 0.97800004 5.809705e-39
0.04005143 -0.17231429 0.97800004 7.4692263e-39
0.041914288 -0.17231429 0.97800004 9.9546099e-39
0.043777145 -0.17231429 0.97800004 1.2997066e-38
0.045639999 -0.17231429 0.97800004 1.3639924e-38
0.047648571 -0.17284288 0.98100007 1.3271141e-38
0.049517147 -0.17284288 0.98100007 1.2626135e-38
0.051385716 -0.17284288 0.98100007 1.2072961e-38
0.053417142 -0.17337143 0.98400003 1.225769e-38
-0.088900007 -0.15494001 0.88900006 1.1078512e-39
-0.087206677 -0.15494001 0.88900006 3.5901267e-42
-0.085513338 -0.15494001 0.88900006 5.8119148e-39
-0.084008567 -0.15528858 0.89100003 1.1793876e-38
-0.082311429 -0.15528858 0.89100003 1.4467549e-38
-0.080614291 -0.15528858 0.89100003 1.575253e-38
-0.079182863 -0.15581143 0.89400005 1.1788118e-38
-0.077480003 -0.15581143 0.89400005 1.1694109e-38
-0.075777143 -0.15581143 0.89400005 9.3892182e-39
-0.074074291 -0.15581143 0.89400005 8.3607282e-39
-0.072533339 -0.15616 0.89600003 8.3607282e-39
-0.070826672 -0.15616 0.89600003 9.1865092e-39
-0.069120005 -0.15616 0.89600003 1.0477248e-38
-0.067413338 -0.15616 0.89600003 8.5497984e-39
-0.06570667 -0.15616 0.89600003 8.9185809e-39
-0.064000003 -0.15616 0.89600003 5.334086e-39
-0.062432382 -0.15650858 0.89800006 2.7551195e-39
0.032600004 -0.17045145 0.97800004 1.1612709e-38
0.034462858 -0.17045145 0.97800004 1.1519071e-38
0.036325715 -0.17045145 0.97800004 8.3844199e-39
0.038188573 -0.17045145 0.97800004 8.1063266e-39
0.04005143 -0.17045145 0.97800004 9.2126742e-39
0.041914288 -0.17045145 0.97800004 1.1332509e-38
0.043777145 -0.17045145 0.97800004 1.3913987e-38
0.045639999 -0.17045145 0.97800004 1.3455533e-38
0.047648571 -0.1709743 0.98100007 1.308675e-38
0.049517147 -0.1709743 0.98100007 1.2350264e-38
0.051385716 -0.1709743 0.98100007 1.179709e-38
-0.089099996 -0.15359144 0.89100003 1.6687071e-38
-0.087206677 -0.15324667 0.88900006 1.6596257e-38
-0.085513338 -0.15324667 0.88900006 1.7610409e-38
-0.084008567 -0.15359144 0.89100003 1.9817744e-38
-0.082311429 -0.15359144 0.89100003 2.138507e-38
-0.080614291 -0.15359144 0.89100003 2.1108146e-38
-0.079182863 -0.15410858 0.89400005 2.0923754e-38
-0.077480003 -0.15410858 0.89400005 2.0186905e-38
-0.075777143 -0.15410858 0.89400005 1.9818123e-38
-0.074074291 -0.15410858 0.89400005 1.9537895e-38
-0.072533339 -0.15445334 0.89600003 1.7140809e-38
-0.070826672 -0.15445334 0.89600003 1.7229741e-38
-0.069120005 -0.15445334 0.89600003 1.3910698e-38
-0.067413338 -0.15445334 0.89600003 1.1699863e-38
-0.06570667 -0.15445334 0.89600003 7.9198418e-39
-0.064000003 -0.15445334 0.89600003 4.0519974e-39
-0.062293336 -0.15445334 0.89600003 2.0236936e-39
0.032700002 -0.16910572 0.98100007 1.1427229e-38
0.034462858 -0.16858858 0.97800004 1.1240639e-38
0.036325715 -0.16858858 0.97800004 1.0779661e-38
0.038188573 -0.16858858 0.97800004 1.114773e-38
0.04005143 -0.16858858 0.97800004 1.1885295e-38
0.041914288 -0.16858858 0.97800004 1.2254466e-38
0.043777145 -0.16858858 0.97800004 1.4467161e-38
0.045639999 -0.16858858 0.97800004 1.4100504e-38
0.047648571 -0.16910572 0.98100007 1.3270743e-38
0.049517147 -0.16910572 0.98100007 1.253322e-38
-0.089400001 -0.15240572 0.89400005 1.9448987e-38
-0.087402858 -0.15189429 0.89100003 1.9816653e-38
-0.08570572 -0.15189429 0.89100003 2.0554218e-38
-0.084291428 -0.15240572 0.89400005 2.0740427e-38
-0.082311429 -0.15189429 0.89100003 2.0371644e-38
-0.080614291 -0.15189429 0.89100003 1.9820644e-38
-0.079182863 -0.15240572 0.89400005 1.9820644e-38
-0.077480003 -0.15240572 0.89400005 2.0003597e-38
-0.075777143 -0.15240572 0.89400005 1.9173837e-38
-0.074074291 -0.15240572 0.89400005 1.9171321e-38
-0.072533339 -0.15274666 0.89600003 1.7235213e-38
-0.070826672 -0.15274666 0.89600003 1.7417071e-38
-0.069120005 -0.15274666 0.89600003 1.2715094e-38
-0.067413338 -0.15274666 0.89600003 1.1057387e-38
-0.065560006 -0.15240572 0.89400005 6.0788229e-39
-0.063857146 -0.15240572 0.89400005 2.8526821e-39
-0.062293336 -0.15274666 0.89600003 1.8385302e-39
0.034462858 -0.16672572 0.97800004 1.1237042e-38
0.036214288 -0.16621429 0.97500002 1.2343389e-38
0.038071431 -0.16621429 0.97500002 1.2343402e-38
0.04005143 -0.16672572 0.97800004 1.2343402e-38
0.041914288 -0.16672572 0.97800004 1.3080248e-38
0.043777145 -0.16672572 0.97800004 1.5108552e-38
0.045639999 -0.16672572 0.97800004 1.4375306e-38
0.047648571 -0.16723715 0.98100007 1.3729936e-38
0.049517147 -0.16723715 0.98100007 1.2349185e-38
-0.088383809 -0.15188286 0.90100002 1.8987633e-38
-0.086379051 -0.15137716 0.89800006 1.9725198e-38
-0.084668577 -0.15137716 0.89800006 1.9449681e-38
-0.082773335 -0.15104 0.89600003 1.8343333e-38
-0.081066668 -0.15104 0.89600003 1.6960068e-38
-0.079360001 -0.15104 0.89600003 1.6314699e-38
-0.077653334 -0.15104 0.89600003 1.5113684e-38
-0.075946666 -0.15104 0.89600003 1.4099532e-38
-0.074239999 -0.15104 0.89600003 1.3728186e-38
-0.072533339 -0.15104 0.89600003 1.2714034e-38
-0.070826672 -0.15104 0.89600003 1.3172081e-38
-0.069120005 -0.15104 0.89600003 1.1696951e-38
-0.067413338 -0.15104 0.89600003 1.0778216e-38
-0.065560006 -0.15070286 0.89400005 8.7499122e-39
-0.063857146 -0.15070286 0.89400005 8.9368146e-39
0.034357142 -0.16435714 0.97500002 1.0869338e-38
0.036214288 -0.16435714 0.97500002 1.3082033e-38
0.038071431 -0.16435714 0.97500002 1.3633785e-38
0.03992857 -0.16435714 0.97500002 1.4094763e-38
0.041785713 -0.16435714 0.97500002 1.4001476e-38
0.043777145 -0.16486286 0.97800004 1.455465e-38
0.045780003 -0.16536857 0.98100007 1.4097274e-38
-0.088383809 -0.15016666 0.90100002 1.6960762e-38
-0.08666762 -0.15016666 0.90100002 1.7882718e-38
-0.084951431 -0.15016666 0.90100002 1.8526665e-38
-0.082958095 -0.14966667 0.89800006 1.8250078e-38
-0.08124762 -0.14966667 0.89800006 1.6315755e-38
-0.074405722 -0.14966667 0.89800006 1.2711115e-38
-0.07269524 -0.14966667 0.89800006 1.2803311e-38
-0.070826672 -0.14933333 0.89600003 1.2709668e-38
-0.069120005 -0.14933333 0.89600003 1.160332e-38
-0.067413338 -0.14933333 0.89600003 1.1418532e-38
-0.06570667 -0.14933333 0.89600003 1.104975e-38
0.03418095 -0.16166666 0.97000003 1.0501985e-38
0.036028571 -0.16166666 0.97000003 1.271468e-38
0.037876189 -0.16166666 0.97000003 1.3540854e-38
0.039723814 -0.16166666 0.97000003 1.446281e-38
0.041571431 -0.16166666 0.97000003 1.4552482e-38
0.03418095 -0.15981904 0.97000003 1.1976081e-38
0.036028571 -0.15981904 0.97000003 1.2805842e-38
0.037876189 -0.15981904 0.97000003 1.3633748e-38
0.039723814 -0.15981904 0.97000003 1.5569857e-38
0.041571431 -0.15981904 0.97000003 1.5753529e-38
0.03418095 -0.15797144 0.97000003 1.2342683e-38
0.036028571 -0.15797144 0.97000003 1.3264639e-38
0.037876189 -0.15797144 0.97000003 1.381887e-38
0.039723814 -0.15797144 0.97000003 1.5662782e-38
0.03428667 -0.15660667 0.97300005 1.2990571e-38
0.036028571 -0.15612382 0.97000003 1.4281309e-38
0.037876189 -0.15612382 0.97000003 1.5294375e-38
0.039723814 -0.15612382 0.97000003 1.6216332e-38
0.032233335 -0.15379906 0.96700007 1.2622885e-38
0.034075242 -0.15379906 0.96700007 1.2900892e-38
0.035917144 -0.15379906 0.96700007 1.5021391e-38
0.037759051 -0.15379906 0.96700007 1.5480218e-38
0.039600953 -0.15379906 0.96700007 1.5849001e-38
0.04144286 -0.15379906 0.96700007 1.6215603e-38
0.032233335 -0.15195715 0.96700007 1.3268621e-38
0.034075242 -0.15195715 0.96700007 1.3819633e-38
0.035917144 -0.15195715 0.96700007 1.621672e-38
0.037759051 -0.15195715 0.96700007 1.6491852e-38
0.039600953 -0.15195715 0.96700007 1.612307e-38
0.04144286 -0.15195715 0.96700007 1.6123054e-38
0.034075242 -0.15011525 0.96700007 1.4923798e-38
0.035917144 -0.15011525 0.96700007 1.6859906e-38
-0.26192576 -0.086554289 0.59400004 1.8529549e-38
-0.26079431 -0.086554289 0.59400004 1.871394e-38
-0.26010001 -0.0867 0.59500003 1.8806136e-38
-0.25940192 -0.086845718 0.59600002 2.018907e-38
-0.25826666 -0.086845718 0.59600002 2.0097225e-38
-0.25756288 -0.086991429 0.597 2.0466008e-38
-0.26285428 -0.084991433 0.59100002 1.8068211e-38
-0.26172858 -0.084991433 0.59100002 1.8344798e-38
