# .PCD v0.7 - Point Cloud Data file format
VERSION 0.7
FIELDS x y z rgb
SIZE 4 4 4 4
TYPE F F F F
COUNT 1 1 1 1
WIDTH 965
HEIGHT 1
VIEWPOINT 0 0 0 1 0 0 0
POINTS 965
DATA ascii
0.012042858 -0.24005431 0.84300005 3.1314466e-39
0.013648572 -0.24005431 0.84300005 2.5800679e-39
-0.015724761 -0.24580286 0.86900002 1.3562236e-38
-0.014037143 -0.24523716 0.86700004 9.8744248e-39
-0.012342857 -0.24438857 0.86400002 8.21596e-39
-0.010697143 -0.24438857 0.86400002 4.989113e-39
-0.0090304762 -0.24382286 0.86200005 7.1945956e-39
-0.0073885717 -0.24382286 0.86200005 7.9321607e-39
-0.0057466668 -0.24382286 0.86200005 7.9277928e-39
-0.0040952382 -0.24325714 0.86000001 8.4809666e-39
-0.0024571428 -0.24325714 0.86000001 7.9284963e-39
-0.00081904762 -0.24325714 0.86000001 5.6236055e-39
0.0088314293 -0.23844859 0.84300005 2.5800455e-39
0.010437143 -0.23844859 0.84300005 2.5786232e-39
-0.015760954 -0.24470952 0.87100005 1.4205802e-38
-0.014069525 -0.24414763 0.86900002 9.8726199e-39
-0.012342857 -0.24274287 0.86400002 7.9375809e-39
-0.010697143 -0.24274287 0.86400002 3.9731688e-39
-0.0090514291 -0.24274287 0.86400002 4.7092667e-39
-0.0074057141 -0.24274287 0.86400002 5.5390273e-39
-0.0040952382 -0.24161904 0.86000001 7.4689572e-39
-0.0024571428 -0.24161904 0.86000001 7.7437519e-39
-0.015760954 -0.24305049 0.87100005 1.457422e-38
-0.014069525 -0.24249238 0.86900002 9.1346891e-39
-0.012414285 -0.24249238 0.86900002 6.184066e-39
-0.010759047 -0.24249238 0.86900002 1.4820889e-39
-0.0040952382 -0.23998097 0.86000001 4.6171663e-40
-0.0024571428 -0.23998097 0.86000001 1.2003635e-39
-0.015797142 -0.24194573 0.87300003 1.1904527e-38
-0.014101906 -0.24139144 0.87100005 3.5147242e-39
-0.012414285 -0.24083714 0.86900002 2.4951394e-39
-0.010759047 -0.24083714 0.86900002 1.9419657e-39
-0.015797142 -0.24028286 0.87300003 9.7810773e-39
-0.014101906 -0.23973238 0.87100005 2.9385229e-42
-0.012414285 -0.23918191 0.86900002 5.6051939e-45
-0.010759047 -0.23918191 0.86900002 1.936474e-39
-0.026512383 -0.24545334 0.89800006 7.5643296e-39
-0.024801906 -0.24545334 0.89800006 5.0750476e-39
-0.015833335 -0.23916668 0.87500006 8.6704418e-39
-0.014134286 -0.23862001 0.87300003 2.8063944e-40
-0.012442858 -0.23807335 0.87100005 2.0207481e-39
-0.01078381 -0.23807335 0.87100005 3.8646607e-39
-0.0091247624 -0.23807335 0.87100005 4.4135689e-39
-0.026453335 -0.2432 0.89600003 7.5273269e-40
-0.024746668 -0.2432 0.89600003 2.7810366e-39
-0.02304 -0.2432 0.89600003 7.6646234e-39
-0.019276192 -0.23885716 0.88000005 1.4756815e-38
-0.01756 -0.2383143 0.87800002 9.5938722e-39
-0.015833335 -0.23750001 0.87500006 8.0236052e-39
-0.014134286 -0.23695715 0.87300003 1.7543024e-39
-0.012442858 -0.2364143 0.87100005 3.4912118e-39
-0.01078381 -0.2364143 0.87100005 5.0585375e-39
-0.0091247624 -0.2364143 0.87100005 4.872389e-39
-0.0075000003 -0.23750001 0.87500006 4.5958021e-39
-0.0058333338 -0.23750001 0.87500006 4.3220767e-39
-0.028317144 -0.24284095 0.90100002 7.1005307e-39
-0.026453335 -0.24149334 0.89600003 1.9586789e-40
-0.024746668 -0.24149334 0.89600003 4.7134482e-39
-0.02304 -0.24149334 0.89600003 8.1248854e-39
-0.021333335 -0.24149334 0.89600003 1.2458058e-38
-0.019276192 -0.23718096 0.88000005 1.4018902e-38
-0.01756 -0.2366419 0.87800002 4.3383682e-39
-0.01588762 -0.2366419 0.87800002 4.0519974e-39
-0.014166667 -0.23583335 0.87500006 3.1300411e-39
-0.012471429 -0.23529428 0.87300003 4.8709163e-39
-0.010808571 -0.23529428 0.87300003 5.6084813e-39
-0.0091457143 -0.23529428 0.87300003 4.9627644e-39
-0.0075000003 -0.23583335 0.87500006 4.6861775e-39
-0.0058333338 -0.23583335 0.87500006 5.2397016e-39
-0.028317144 -0.24112476 0.90100002 5.9005553e-39
-0.026453335 -0.23978667 0.89600003 1.0044507e-40
-0.024746668 -0.23978667 0.89600003 6.2775467e-39
-0.02304 -0.23978667 0.89600003 9.9641261e-39
-0.021333335 -0.23978667 0.89600003 1.2822171e-38
-0.019276192 -0.23550478 0.88000005 1.309652e-38
-0.017600002 -0.23550478 0.88000005 2.5797905e-42
-0.015923811 -0.23550478 0.88000005 9.2198432e-41
-0.014215238 -0.23496953 0.87800002 4.9785668e-39
-0.012500001 -0.23416668 0.87500006 8.8349486e-39
-0.010833334 -0.23416668 0.87500006 9.0193399e-39
-0.0091666672 -0.23416668 0.87500006 8.4650492e-39
-0.0074828574 -0.23363143 0.87300003 6.528941e-39
-0.0058200001 -0.23363143 0.87300003 7.7225222e-39
0.0089152381 -0.2277438 0.85100001 5.2547978e-39
0.01053619 -0.2277438 0.85100001 5.1626021e-39
0.012128572 -0.22720858 0.84900004 5.1626021e-39
0.013745715 -0.22720858 0.84900004 5.4416904e-39
-0.028097145 -0.23754857 0.89400005 4.6098039e-39
-0.026305715 -0.23675144 0.89100003 1.9156311e-40
-0.024553334 -0.23622002 0.88900006 7.382818e-39
-0.022808572 -0.23568858 0.88700002 1.1711174e-38
-0.021119049 -0.23568858 0.88700002 1.1342391e-38
-0.019276192 -0.23382859 0.88000005 1.1340525e-38
-0.017600002 -0.23382859 0.88000005 2.7704932e-40
-0.015923811 -0.23382859 0.88000005 2.2966049e-39
-0.014215238 -0.23329714 0.87800002 6.5375982e-39
-0.012542857 -0.23329714 0.87800002 1.0305056e-38
-0.010808571 -0.23196857 0.87300003 1.0581643e-38
-0.0091457143 -0.23196857 0.87300003 9.9337978e-39
-0.0074828574 -0.23196857 0.87300003 8.3664721e-39
-0.0058200001 -0.23196857 0.87300003 8.3653679e-39
0.0072942856 -0.22612286 0.85100001 3.5931282e-39
0.0089152381 -0.22612286 0.85100001 3.6853239e-39
0.01053619 -0.22612286 0.85100001 3.5009354e-39
0.012128572 -0.22559144 0.84900004 4.6994786e-39
0.013745715 -0.22559144 0.84900004 5.4406366e-39
-0.028002858 -0.23505428 0.89100003 2.675118e-39
-0.026305715 -0.23505428 0.89100003 7.8752974e-43
-0.024553334 -0.23452668 0.88900006 1.0234502e-38
-0.022808572 -0.23399904 0.88700002 1.2450524e-38
-0.021119049 -0.23399904 0.88700002 1.0975404e-38
-0.019320002 -0.23268001 0.88200003 1.106459e-38
-0.017600002 -0.23215239 0.88000005 1.3840485e-39
-0.015923811 -0.23215239 0.88000005 3.3986504e-39
-0.014215238 -0.23162477 0.87800002 7.1786713e-39
-0.012471429 -0.23030573 0.87300003 9.9348418e-39
-0.010808571 -0.23030573 0.87300003 1.2885102e-38
-0.0091247624 -0.22977811 0.87100005 1.1592596e-38
-0.0074657151 -0.22977811 0.87100005 9.1955097e-39
-0.0058066668 -0.22977811 0.87100005 9.4702791e-39
-0.0041476195 -0.22977811 0.87100005 1.0023453e-38
0.0056933332 -0.22529334 0.85400003 2.3946271e-39
0.0072942856 -0.22450191 0.85100001 2.3034838e-39
0.0089152381 -0.22450191 0.85100001 2.5800707e-39
0.01053619 -0.22450191 0.85100001 2.4882254e-39
0.012157143 -0.22450191 0.85100001 2.7648123e-39
0.013778095 -0.22450191 0.85100001 3.0410461e-39
0.015453333 -0.22529334 0.85400003 1.4737204e-39
0.01708 -0.22529334 0.85400003 2.5839958e-39
-0.028002858 -0.23335715 0.89100003 3.1339508e-39
-0.026305715 -0.23335715 0.89100003 3.5873241e-42
-0.024553334 -0.23283336 0.88900006 1.0052908e-38
-0.022860002 -0.23283336 0.88900006 1.189987e-38
-0.01764 -0.23100001 0.88200003 9.3067798e-40
-0.015923811 -0.2304762 0.88000005 4.7765935e-39
-0.014215238 -0.22995239 0.87800002 6.4361148e-39
-0.012471429 -0.22864287 0.87300003 9.5656991e-39
-0.01078381 -0.22811906 0.87100005 1.187059e-38
-0.0091247624 -0.22811906 0.87100005 1.1683694e-38
-0.0074657151 -0.22811906 0.87100005 9.8397819e-39
-0.0058066668 -0.22811906 0.87100005 1.0204604e-38
-0.0041380953 -0.22759524 0.86900002 1.1126561e-38
-0.0024828573 -0.22759524 0.86900002 8.0077089e-39
0.0056933332 -0.22366667 0.85400003 2.5786232e-39
0.0072942856 -0.22288096 0.85100001 2.4882254e-39
0.0089152381 -0.22288096 0.85100001 2.3038342e-39
0.010573333 -0.22366667 0.85400003 2.7630145e-39
0.012200001 -0.22366667 0.85400003 2.6708188e-39
0.013826667 -0.22366667 0.85400003 2.6708188e-39
0.015453333 -0.22366667 0.85400003 9.1910185e-40
0.01708 -0.22366667 0.85400003 1.6577235e-39
-0.031643812 -0.23348002 0.89800006 1.336942e-38
-0.029933335 -0.23348002 0.89800006 1.226241e-38
-0.028002858 -0.23166001 0.89100003 1.7521079e-39
-0.026305715 -0.23166001 0.89100003 9.7301961e-41
-0.024801906 -0.23348002 0.89800006 9.5012562e-39
-0.02309143 -0.23348002 0.89800006 1.0054853e-38
-0.014215238 -0.22827999 0.87800002 4.5922232e-39
-0.012500001 -0.22750001 0.87500006 6.9864019e-39
-0.01078381 -0.22646001 0.87100005 9.4756839e-39
-0.0091247624 -0.22646001 0.87100005 1.0206394e-38
-0.0074657151 -0.22646001 0.87100005 1.0575176e-38
-0.0058066668 -0.22646001 0.87100005 1.0299298e-38
-0.0041380953 -0.22594 0.86900002 1.0575885e-38
-0.0024828573 -0.22594 0.86900002 7.8225987e-39
0.0056933332 -0.22204001 0.85400003 2.3027454e-39
0.0073200003 -0.22204001 0.85400003 2.3038342e-39
0.0089466665 -0.22204001 0.85400003 2.3960298e-39
0.010573333 -0.22204001 0.85400003 2.7637207e-39
0.012200001 -0.22204001 0.85400003 2.7637207e-39
0.013826667 -0.22204001 0.85400003 2.2123448e-39
0.015453333 -0.22204001 0.85400003 1.1981929e-39
0.01708 -0.22204001 0.85400003 3.596724e-39
-0.031643812 -0.23176953 0.89800006 1.3736448e-38
-0.029933335 -0.23176953 0.89800006 1.1433375e-38
-0.028222859 -0.23176953 0.89800006 2.1216163e-39
-0.026512383 -0.23176953 0.89800006 9.2996192e-40
-0.024801906 -0.23176953 0.89800006 6.646091e-39
-0.02309143 -0.23176953 0.89800006 8.2998838e-39
-0.021500001 -0.23306 0.90300006 2.6759504e-39
-0.010808571 -0.22531715 0.87300003 7.4527723e-39
-0.0091247624 -0.22480096 0.87100005 9.0136043e-39
-0.0074657151 -0.22480096 0.87100005 1.0304343e-38
-0.0058066668 -0.22480096 0.87100005 9.9330565e-39
-0.0041476195 -0.22480096 0.87100005 1.0117448e-38
0.0024457145 -0.22092953 0.85600007 2.0279507e-39
0.0040761908 -0.22092953 0.85600007 2.2105469e-39
0.0056933332 -0.22041334 0.85400003 2.4871338e-39
0.0073200003 -0.22041334 0.85400003 2.1201618e-39
0.0089466665 -0.22041334 0.85400003 2.2123574e-39
0.010573333 -0.22041334 0.85400003 2.4882254e-39
0.012200001 -0.22041334 0.85400003 2.3038342e-39
0.013826667 -0.22041334 0.85400003 1.2929094e-39
0.015453333 -0.22041334 0.85400003 1.7538876e-39
0.01708 -0.22041334 0.85400003 5.6254132e-39
-0.028222859 -0.23005906 0.89800006 2.7662767e-39
-0.026512383 -0.23005906 0.89800006 3.0476e-39
-0.024801906 -0.23005906 0.89800006 5.1680994e-39
-0.023220003 -0.23134001 0.90300006 5.2551859e-39
-0.021500001 -0.23134001 0.90300006 1.751752e-39
-0.0091247624 -0.22314191 0.87100005 9.5635453e-39
-0.0074657151 -0.22314191 0.87100005 1.1223067e-38
-0.0058066668 -0.22314191 0.87100005 1.0948603e-38
0.0024457145 -0.21929906 0.85600007 2.3967332e-39
0.0040761908 -0.21929906 0.85600007 2.301686e-39
0.005706667 -0.21929906 0.85600007 2.301686e-39
0.0073371432 -0.21929906 0.85600007 2.1194429e-39
0.0089676194 -0.21929906 0.85600007 2.2116385e-39
0.010598096 -0.21929906 0.85600007 2.1194429e-39
0.012228573 -0.21929906 0.85600007 1.7506604e-39
0.013859048 -0.21929906 0.85600007 9.2340384e-40
0.015489525 -0.21929906 0.85600007 5.4409897e-39
-0.028474286 -0.23038286 0.90600002 2.5847497e-39
-0.026748572 -0.23038286 0.90600002 4.0577638e-39
-0.025022857 -0.23038286 0.90600002 4.4265463e-39
-0.023297142 -0.23038286 0.90600002 4.0519974e-39
-0.021500001 -0.22962001 0.90300006 3.0378455e-39
-0.019780001 -0.22962001 0.90300006 6.3431807e-39
-0.018060001 -0.22962001 0.90300006 8.5558758e-39
-0.0058200001 -0.22199143 0.87300003 1.1592596e-38
-0.0041571432 -0.22199143 0.87300003 1.0947227e-38
0.00081523816 -0.21766859 0.85600007 3.1321529e-39
0.0024457145 -0.21766859 0.85600007 2.4867835e-39
0.0040761908 -0.21766859 0.85600007 2.2112882e-39
0.005706667 -0.21766859 0.85600007 2.1190926e-39
0.0073371432 -0.21766859 0.85600007 2.0272473e-39
0.0089676194 -0.21766859 0.85600007 2.3038342e-39
0.010598096 -0.21766859 0.85600007 2.1201618e-39
0.012228573 -0.21766859 0.85600007 9.2161859e-40
0.013891429 -0.21817715 0.85800004 7.3938533e-40
0.015525714 -0.21817715 0.85800004 8.2072313e-39
-0.0306 -0.23168571 0.91800004 1.106452e-38
-0.028851429 -0.23168571 0.91800004 1.2917954e-39
-0.026807619 -0.22916192 0.90800005 1.4751917e-39
-0.025022857 -0.22865716 0.90600002 3.5956912e-39
-0.023297142 -0.22865716 0.90600002 4.7877604e-39
-0.021500001 -0.22790001 0.90300006 4.2345866e-39
-0.019780001 -0.22790001 0.90300006 6.7105311e-39
-0.018060001 -0.22790001 0.90300006 8.0012699e-39
-0.016394285 -0.22865716 0.90600002 8.4586103e-39
-0.0041571432 -0.22032857 0.87300003 1.0858227e-38
-0.0024942856 -0.22032857 0.87300003 7.3627402e-39
0.00082095241 -0.21755238 0.86200005 1.7503129e-39
0.0024514287 -0.21654287 0.85800004 2.3956823e-39
0.004085714 -0.21654287 0.85800004 1.9347041e-39
0.0057200002 -0.21654287 0.85800004 1.8425085e-39
0.0073542856 -0.21654287 0.85800004 1.842856e-39
0.0089885723 -0.21654287 0.85800004 2.2116385e-39
0.010598096 -0.21603811 0.85600007 2.026897e-39
0.012228573 -0.21603811 0.85600007 7.3615814e-40
0.013891429 -0.21654287 0.85800004 4.6208938e-40
0.015525714 -0.21654287 0.85800004 9.1284786e-39
-0.0306 -0.22993715 0.91800004 9.3085314e-39
-0.028851429 -0.22993715 0.91800004 1.8406854e-39
-0.027014285 -0.22918572 0.91500002 2.0258446e-39
-0.025216192 -0.22868478 0.91300005 4.0541484e-39
-0.023348572 -0.2274324 0.90800005 5.6131953e-39
-0.021571428 -0.22693142 0.90600002 5.0600215e-39
-0.019845715 -0.22693142 0.90600002 6.8016421e-39
-0.01812 -0.22693142 0.90600002 8.0001853e-39
-0.016340001 -0.22618002 0.90300006 8.087667e-39
-0.014539048 -0.22492763 0.89800006 8.4564495e-39
-0.012828573 -0.22492763 0.89800006 8.7312763e-39
-0.011118095 -0.22492763 0.89800006 9.8376239e-39
-0.0093133338 -0.22267336 0.88900006 1.0938178e-38
-0.0076200003 -0.22267336 0.88900006 1.4994786e-38
-0.0041571432 -0.21866572 0.87300003 1.1226306e-38
-0.0024942856 -0.21866572 0.87300003 7.4545855e-39
-0.00082761905 -0.21766381 0.86900002 3.1224671e-39
0.00082095241 -0.21591048 0.86200005 1.7506604e-39
0.0024571428 -0.21540953 0.86000001 2.2116385e-39
0.0040952382 -0.21540953 0.86000001 2.1194429e-39
0.0057333331 -0.21540953 0.86000001 2.0272473e-39
0.0073542856 -0.21490857 0.85800004 2.0272473e-39
0.0089885723 -0.21490857 0.85800004 1.9350516e-39
0.010622857 -0.21490857 0.85800004 1.8443204e-39
0.012257144 -0.21490857 0.85800004 9.2603408e-41
0.013891429 -0.21490857 0.85800004 2.7700167e-40
-0.030666668 -0.22868572 0.92000002 7.0061392e-39
-0.028851429 -0.22818857 0.91800004 9.2122762e-40
-0.02710286 -0.22818857 0.91800004 2.0244251e-39
-0.025271429 -0.22744286 0.91500002 3.6839464e-39
-0.023400001 -0.2262 0.91000003 5.334086e-39
-0.021619048 -0.22570287 0.90800005 5.7028686e-39
-0.019889524 -0.22570287 0.90800005 7.2608182e-39
-0.01812 -0.22520572 0.90600002 8.551557e-39
-0.016340001 -0.22446001 0.90300006 8.4586103e-39
-0.014506667 -0.22272 0.89600003 8.7351972e-39
-0.012771429 -0.22222286 0.89400005 9.3759199e-39
-0.011006667 -0.22098002 0.88900006 1.0758854e-38
-0.0093133338 -0.22098002 0.88900006 1.1214785e-38
-0.0076200003 -0.22098002 0.88900006 1.2136741e-38
-0.0058800001 -0.21924001 0.88200003 1.1497486e-38
-0.0041571432 -0.21700287 0.87300003 1.2235051e-38
-0.0024942856 -0.21700287 0.87300003 8.2839945e-39
-0.00082095241 -0.21426858 0.86200005 2.8469634e-39
0.00082095241 -0.21426858 0.86200005 1.2889928e-39
0.0024571428 -0.21377143 0.86000001 2.3953404e-39
0.0040952382 -0.21377143 0.86000001 2.5782729e-39
0.0057466668 -0.21426858 0.86200005 2.6704685e-39
0.0073714289 -0.21377143 0.86000001 2.3038342e-39
0.0090095233 -0.21377143 0.86000001 2.3038342e-39
0.010647619 -0.21377143 0.86000001 1.9361671e-39
0.012285715 -0.21377143 0.86000001 3.6884137e-40
-0.030766666 -0.22767334 0.92300004 4.4246868e-39
-0.028914286 -0.22693333 0.92000002 1.1056441e-39
-0.02710286 -0.22644001 0.91800004 2.1183891e-39
-0.025271429 -0.22569999 0.91500002 2.9481498e-39
-0.023477143 -0.22520667 0.91300005 5.5184521e-39
-0.021738095 -0.22520667 0.91300005 5.9794302e-39
-0.019933334 -0.22446667 0.91000003 7.4434018e-39
-0.01816 -0.22397335 0.90800005 7.9043799e-39
-0.016430477 -0.22397335 0.90800005 8.1816801e-39
-0.014506667 -0.22101334 0.89600003 8.458267e-39
-0.012771429 -0.22052002 0.89400005 9.8340169e-39
-0.011006667 -0.21928668 0.88900006 1.2415495e-38
-0.0093133338 -0.21928668 0.88900006 1.2047037e-38
-0.0076028574 -0.21879333 0.88700002 1.1586059e-38
-0.0058800001 -0.21756001 0.88200003 1.1403848e-38
-0.0041904761 -0.21706668 0.88000005 1.2786783e-38
-0.0025000002 -0.21583335 0.87500006 8.7464118e-39
-0.00082095241 -0.21262668 0.86200005 2.8469676e-39
0.00082095241 -0.21262668 0.86200005 2.2073225e-39
0.0024628574 -0.21262668 0.86200005 3.3136701e-39
0.0041047623 -0.21262668 0.86200005 3.1303354e-39
0.0057466668 -0.21262668 0.86200005 3.1303354e-39
0.0073885717 -0.21262668 0.86200005 2.6718754e-39
0.0090304762 -0.21262668 0.86200005 2.8562667e-39
0.010672381 -0.21262668 0.86200005 2.3956795e-39
0.012314286 -0.21262668 0.86200005 3.6737562e-40
-0.030833337 -0.22640479 0.92500007 4.8846084e-39
-0.029008573 -0.22591525 0.92300004 1.47337e-39
-0.027250476 -0.22591525 0.92300004 2.1183891e-39
-0.025409523 -0.22518095 0.92000002 2.4871717e-39
-0.02352857 -0.22395714 0.91500002 5.2389981e-39
-0.021738095 -0.22346762 0.91300005 5.9765632e-39
-0.019933334 -0.22273333 0.91000003 7.0756884e-39
-0.01816 -0.22224383 0.90800005 7.1678841e-39
-0.016430477 -0.22224383 0.90800005 8.0844748e-39
-0.014506667 -0.21930666 0.89600003 9.5596049e-39
-0.012771429 -0.21881714 0.89400005 1.0383617e-38
-0.011006667 -0.21759336 0.88900006 1.2688508e-38
-0.0093133338 -0.21759336 0.88900006 1.2229993e-38
-0.0075857146 -0.21661429 0.88500005 1.1769015e-38
-0.0058800001 -0.21588001 0.88200003 1.158716e-38
-0.0041904761 -0.21539049 0.88000005 1.4168638e-38
-0.0025000002 -0.21416669 0.87500006 1.0131471e-38
-0.00082285714 -0.21147428 0.86400002 5.5216891e-39
0.00082285714 -0.21147428 0.86400002 3.8729577e-39
0.0024628574 -0.21098477 0.86200005 4.4261315e-39
0.0041047623 -0.21098477 0.86200005 4.6087025e-39
0.0057600001 -0.21147428 0.86400002 4.6087025e-39
0.0073885717 -0.21098477 0.86200005 4.4257406e-39
0.0090304762 -0.21098477 0.86200005 4.3335449e-39
0.010672381 -0.21098477 0.86200005 4.4246868e-39
0.012314286 -0.21098477 0.86200005 2.9495567e-39
-0.034728575 -0.22707145 0.93500006 1.0787617e-38
-0.032771431 -0.22585717 0.93000007 6.8232053e-39
-0.030833337 -0.22464287 0.92500007 5.3459424e-39
-0.029008573 -0.22415714 0.92300004 2.4878779e-39
-0.027250476 -0.22415714 0.92300004 2.2094931e-39
-0.025409523 -0.22342858 0.92000002 2.3938844e-39
-0.023657143 -0.22342858 0.92000002 4.8709163e-39
-0.021857142 -0.22294286 0.91800004 5.9772638e-39
-0.019999048 -0.22172859 0.91300005 7.1693232e-39
-0.01816 -0.2205143 0.90800005 6.6161494e-39
-0.016430477 -0.2205143 0.90800005 8.0840824e-39
-0.014539048 -0.21808574 0.89800006 1.0388973e-38
-0.012771429 -0.2171143 0.89400005 1.0936774e-38
-0.011068572 -0.2171143 0.89400005 1.2872883e-38
-0.0093657151 -0.2171143 0.89400005 1.2688842e-38
-0.0075857146 -0.21492858 0.88500005 1.1582494e-38
-0.0058800001 -0.2142 0.88200003 1.1400949e-38
-0.0041904761 -0.21371429 0.88000005 1.4443405e-38
-0.0025142857 -0.21371429 0.88000005 1.040844e-38
-0.00082285714 -0.20982857 0.86400002 7.7347668e-39
0.00082285714 -0.20982857 0.86400002 3.0493446e-39
0.0024628574 -0.20934287 0.86200005 2.2195839e-39
0.0041047623 -0.20934287 0.86200005 3.871513e-39
0.0057600001 -0.20982857 0.86400002 4.4246868e-39
0.0074057141 -0.20982857 0.86400002 3.9680092e-39
0.0090514291 -0.20982857 0.86400002 3.4148354e-39
0.010672381 -0.20934287 0.86200005 4.4264846e-39
0.012314286 -0.20934287 0.86200005 6.086006e-39
0.014037143 -0.21055715 0.86700004 7.1905781e-39
-0.038618095 -0.22721811 0.94300002 1.336911e-38
-0.036704764 -0.22649524 0.94000006 1.0511046e-38
-0.034728575 -0.22529049 0.93500006 1.0510969e-38
-0.032771431 -0.22408573 0.93000007 7.468513e-39
-0.030933332 -0.22360381 0.92800003 5.9898867e-39
-0.02907143 -0.22288097 0.92500007 3.4084091e-39
-0.027309526 -0.22288097 0.92500007 2.301686e-39
-0.025492381 -0.22239906 0.92300004 2.7626641e-39
-0.023734286 -0.22239906 0.92300004 4.6879753e-39
-0.021857142 -0.2211943 0.91800004 5.517736e-39
-0.020108571 -0.2211943 0.91800004 6.617234e-39
-0.018300001 -0.22047144 0.91500002 6.7094297e-39
-0.016557142 -0.22047144 0.91500002 8.6354583e-39
-0.014814286 -0.22047144 0.91500002 1.1954501e-38
-0.013071429 -0.22047144 0.91500002 1.2412958e-38
-0.011006667 -0.21420667 0.88900006 1.3888088e-38
-0.0093133338 -0.21420667 0.88900006 1.2871448e-38
-0.0075857146 -0.21324287 0.88500005 1.17651e-38
-0.0059000002 -0.21324287 0.88500005 1.1489535e-38
-0.0041904761 -0.2120381 0.88000005 1.4439795e-38
-0.0025142857 -0.2120381 0.88000005 1.1235683e-38
-0.00082285714 -0.20818287 0.86400002 1.0313726e-38
0.00082285714 -0.20818287 0.86400002 6.1764262e-39
0.0024685713 -0.20818287 0.86400002 1.6588403e-39
0.004114286 -0.20818287 0.86400002 1.6613416e-39
0.0057600001 -0.20818287 0.86400002 2.4911023e-39
0.0074057141 -0.20818287 0.86400002 2.3070586e-39
0.0090514291 -0.20818287 0.86400002 1.5694935e-39
0.010697143 -0.20818287 0.86400002 2.4936134e-39
0.012342857 -0.20818287 0.86400002 7.1955905e-39
0.014037143 -0.20890573 0.86700004 7.2849738e-39
-0.038618095 -0.22542191 0.94300002 1.3552067e-38
-0.036704764 -0.22470477 0.94000006 8.9422853e-39
-0.034654286 -0.22303145 0.93300003 9.0326536e-39
-0.032877143 -0.22303145 0.93300003 8.2028929e-39
-0.030933332 -0.22183619 0.92800003 6.8221515e-39
-0.029165715 -0.22183619 0.92800003 3.4109132e-39
-0.027398096 -0.22183619 0.92800003 2.7630145e-39
-0.025630476 -0.22183619 0.92800003 2.7630145e-39
-0.023785716 -0.22111906 0.92500007 4.8745148e-39
-0.021976192 -0.22064096 0.92300004 4.5979279e-39
-0.020152381 -0.21992381 0.92000002 5.9732883e-39
-0.018360002 -0.21944572 0.91800004 6.8952446e-39
-0.016611429 -0.21944572 0.91800004 9.3715913e-39
-0.014862858 -0.21944572 0.91800004 1.2321851e-38
-0.011006667 -0.21251334 0.88900006 1.4070694e-38
-0.0093133338 -0.21251334 0.88900006 1.2779595e-38
-0.0076028574 -0.21203524 0.88700002 1.05669e-38
-0.0059000002 -0.21155715 0.88500005 1.1208279e-38
-0.0042142859 -0.21155715 0.88500005 1.3605365e-38
-0.0025285715 -0.21155715 0.88500005 1.1233865e-38
-0.00082761905 -0.20773238 0.86900002 1.1141669e-38
0.00082571432 -0.20725429 0.86700004 6.8228914e-39
0.0024685713 -0.20653714 0.86400002 2.0287186e-39
0.004114286 -0.20653714 0.86400002 1.7506604e-39
0.0057600001 -0.20653714 0.86400002 2.8570079e-39
0.0074057141 -0.20653714 0.86400002 2.7676864e-39
0.0090828575 -0.20725429 0.86700004 1.9379257e-39
0.010734286 -0.20725429 0.86700004 6.5079664e-40
0.012385715 -0.20725429 0.86700004 3.2322743e-39
0.014069525 -0.20773238 0.86900002 5.442866e-39
-0.036704764 -0.22291429 0.94000006 8.7575156e-39
-0.034654286 -0.22125429 0.93300003 8.204695e-39
-0.032877143 -0.22125429 0.93300003 8.204695e-39
-0.031000003 -0.22054288 0.93000007 7.2827737e-39
-0.029228574 -0.22054288 0.93000007 3.9637311e-39
-0.027457144 -0.22054288 0.93000007 2.9463351e-39
-0.025685715 -0.22054288 0.93000007 3.1307264e-39
-0.023862859 -0.22006857 0.92800003 4.6894047e-39
-0.022095239 -0.22006857 0.92800003 4.5050134e-39
-0.020261906 -0.21935715 0.92500007 5.8814486e-39
-0.018460002 -0.21888286 0.92300004 7.3565787e-39
-0.016701905 -0.21888286 0.92300004 9.647109e-39
-0.01494381 -0.21888286 0.92300004 1.2873956e-38
-0.012800001 -0.21248001 0.89600003 1.2965063e-38
-0.011006667 -0.21082 0.88900006 1.3702628e-38
-0.0093133338 -0.21082 0.88900006 1.2687725e-38
-0.0076028574 -0.21034572 0.88700002 1.0936008e-38
-0.0059000002 -0.20987143 0.88500005 1.056692e-38
-0.0042142859 -0.20987143 0.88500005 1.1581072e-38
-0.0025285715 -0.20987143 0.88500005 1.0311515e-38
-0.00082952384 -0.20655143 0.87100005 1.2339819e-38
0.00082571432 -0.20560287 0.86700004 8.2958495e-39
0.0024685713 -0.20489143 0.86400002 2.7641117e-39
0.004114286 -0.20489143 0.86400002 5.550333e-40
0.0057466668 -0.20441715 0.86200005 1.7535765e-39
0.0073885717 -0.20441715 0.86200005 2.8574003e-39
0.0090304762 -0.20441715 0.86200005 2.7652047e-39
0.010672381 -0.20441715 0.86200005 1.0185268e-39
0.012314286 -0.20441715 0.86200005 2.6780481e-39
-0.038740952 -0.22253524 0.94600004 1.2168769e-38
-0.036704764 -0.22112381 0.94000006 8.2965529e-39
-0.034728575 -0.21994764 0.93500006 7.9284738e-39
-0.032877143 -0.21947715 0.93300003 8.1128651e-39
-0.031000003 -0.21877144 0.93000007 7.6508304e-39
-0.029228574 -0.21877144 0.93000007 4.4239833e-39
-0.027457144 -0.21877144 0.93000007 4.0523015e-39
-0.025685715 -0.21877144 0.93000007 2.945954e-39
-0.023862859 -0.21830095 0.92800003 3.9547011e-39
-0.022023812 -0.21759525 0.92500007 3.4937229e-39
-0.020218095 -0.21712476 0.92300004 5.4215495e-39
-0.018460002 -0.21712476 0.92300004 7.0810708e-39
-0.016701905 -0.21712476 0.92300004 9.92297e-39
-0.01494381 -0.21712476 0.92300004 1.3334208e-38
-0.012800001 -0.21077335 0.89600003 1.3149823e-38
-0.011093334 -0.21077335 0.89600003 1.3242018e-38
-0.0093342857 -0.20959716 0.89100003 1.259734e-38
-0.0076200003 -0.20912667 0.88900006 1.2228557e-38
-0.0059133335 -0.20865619 0.88700002 9.371957e-39
-0.0042238096 -0.20865619 0.88700002 8.5421963e-39
-0.0025342857 -0.20865619 0.88700002 9.7557951e-39
-0.0008447619 -0.20865619 0.88700002 1.3167033e-38
0.00082285714 -0.20324571 0.86400002 9.1252472e-39
0.0024685713 -0.20324571 0.86400002 4.2388788e-39
0.004114286 -0.20324571 0.86400002 1.9372615e-39
0.0057466668 -0.20277525 0.86200005 1.2918921e-39
0.0073885717 -0.20277525 0.86200005 2.3034838e-39
0.0089676194 -0.20136383 0.85600007 2.8566576e-39
0.010573333 -0.20089333 0.85400003 1.7528282e-39
0.012157143 -0.20018762 0.85100001 3.2279583e-39
0.013778095 -0.20018762 0.85100001 8.6638711e-39
-0.04054286 -0.22073333 0.94600004 1.1800716e-38
-0.038740952 -0.22073333 0.94600004 1.0879072e-38
-0.036821906 -0.22003333 0.94300002 8.0210072e-39
-0.034728575 -0.21816668 0.93500006 8.2965375e-39
-0.032877143 -0.2177 0.93300003 8.4809288e-39
-0.031000003 -0.21700002 0.93000007 7.9274145e-39
-0.029228574 -0.21700002 0.93000007 4.9771543e-39
-0.027457144 -0.21700002 0.93000007 3.7775195e-39
-0.025685715 -0.21700002 0.93000007 2.5789763e-39
-0.023862859 -0.21653333 0.92800003 3.4965998e-39
-0.022023812 -0.21583335 0.92500007 3.2200129e-39
-0.020218095 -0.21536668 0.92300004 5.3293511e-39
-0.018200001 -0.21233334 0.91000003 6.8966768e-39
-0.016466668 -0.21233334 0.91000003 1.0016245e-38
-0.014700953 -0.21186668 0.90800005 1.3611874e-38
-0.012942857 -0.2114 0.90600002 1.3149114e-38
-0.011093334 -0.20906667 0.89600003 1.2134962e-38
-0.0093657151 -0.20860001 0.89400005 1.2686656e-38
-0.0076371427 -0.20790002 0.89100003 1.3147634e-38
-0.0059266672 -0.20743334 0.88900006 9.5542099e-39
-0.0042333333 -0.20743334 0.88900006 7.6224064e-39
0.00084857148 -0.20790002 0.89100003 9.6733763e-39
0.0024514287 -0.20020001 0.85800004 9.3045938e-39
0.0057200002 -0.20020001 0.85800004 1.9383909e-39
0.0073200003 -0.19926667 0.85400003 2.3063579e-39
0.0089466665 -0.19926667 0.85400003 3.8736836e-39
0.010573333 -0.19926667 0.85400003 3.5023802e-39
0.012157143 -0.19856666 0.85100001 1.3818807e-39
0.013778095 -0.19856666 0.85100001 2.4006583e-39
-0.04054286 -0.21893144 0.94600004 9.4036291e-39
-0.038740952 -0.21893144 0.94600004 9.492187e-39
-0.036821906 -0.21823715 0.94300002 9.0312089e-39
-0.034839999 -0.21708 0.93800002 8.66532e-39
-0.032877143 -0.21592286 0.93300003 8.3887331e-39
-0.031100003 -0.21592286 0.93300003 8.2040014e-39
-0.029322859 -0.21592286 0.93300003 5.0693499e-39
-0.027545715 -0.21592286 0.93300003 4.1473712e-39
-0.025685715 -0.21522859 0.93000007 2.211263e-39
-0.023862859 -0.21476573 0.92800003 3.0370832e-39
-0.022095239 -0.21476573 0.92800003 2.6683007e-39
-0.020261906 -0.21407145 0.92500007 5.1453283e-39
-0.018200001 -0.2106 0.91000003 7.1736322e-39
-0.016466668 -0.2106 0.91000003 1.0385756e-38
-0.014700953 -0.21013716 0.90800005 1.2782842e-38
-0.012942857 -0.20967428 0.90600002 1.2965063e-38
-0.011118095 -0.20782287 0.89800006 1.2227498e-38
-0.0093657151 -0.20689715 0.89400005 1.2871766e-38
-0.0076371427 -0.20620285 0.89100003 1.3609331e-38
-0.0059266672 -0.20574 0.88900006 1.0200286e-38
-0.0042333333 -0.20574 0.88900006 8.7251555e-39
-0.00084857148 -0.20620285 0.89100003 1.2701376e-38
0.005706667 -0.19810286 0.85600007 7.2813808e-39
0.0073200003 -0.19764 0.85400003 5.1637302e-39
0.0089466665 -0.19764 0.85400003 5.3481215e-39
0.010573333 -0.19764 0.85400003 5.8987631e-39
0.012157143 -0.19694571 0.85100001 4.5158286e-39
0.013778095 -0.19694571 0.85100001 4.7287237e-40
-0.042702857 -0.21896572 0.95400006 1.3736105e-38
-0.040885717 -0.21896572 0.95400006 9.1263234e-39
-0.038740952 -0.21712953 0.94600004 8.0206695e-39
-0.036821906 -0.21644095 0.94300002 8.5738433e-39
-0.034914289 -0.21575239 0.94000006 8.7578688e-39
-0.032877143 -0.21414572 0.93300003 8.1124994e-39
-0.031100003 -0.21414572 0.93300003 8.2043545e-39
-0.029322859 -0.21414572 0.93300003 6.1760506e-39
-0.027545715 -0.21414572 0.93300003 4.331059e-39
-0.025685715 -0.21345717 0.93000007 2.4871464e-39
-0.023862859 -0.21299811 0.92800003 3.3118975e-39
-0.022095239 -0.21299811 0.92800003 2.8509193e-39
-0.020327618 -0.21299811 0.92800003 5.237168e-39
-0.01856 -0.21299811 0.92800003 7.5420588e-39
-0.016466668 -0.20886667 0.91000003 1.0569078e-38
-0.014700953 -0.20840764 0.90800005 1.2320795e-38
-0.012942857 -0.20794858 0.90600002 1.2595163e-38
-0.011118095 -0.2061124 0.89800006 1.2779555e-38
-0.0093657151 -0.20519429 0.89400005 1.3147293e-38
-0.0076371427 -0.20450571 0.89100003 1.637414e-38
-0.0059266672 -0.20404667 0.88900006 1.2420556e-38
-0.0042333333 -0.20404667 0.88900006 1.0668839e-38
-0.0025457144 -0.20450571 0.89100003 1.1417512e-38
-0.00084857148 -0.20450571 0.89100003 1.4183381e-38
0.0056933332 -0.19601335 0.85400003 1.3921599e-38
0.0073200003 -0.19601335 0.85400003 1.2814151e-38
0.0089466665 -0.19601335 0.85400003 1.1984391e-38
0.01053619 -0.19532476 0.85100001 1.1707818e-38
0.012157143 -0.19532476 0.85100001 1.124684e-38
0.013778095 -0.19532476 0.85100001 1.0143373e-38
0.015399048 -0.19532476 0.85100001 8.94483e-39
-0.044613335 -0.21760382 0.95600003 1.3643193e-38
-0.042702857 -0.21714859 0.95400006 1.2723022e-38
-0.040885717 -0.21714859 0.95400006 8.4820232e-39
-0.038740952 -0.21532762 0.94600004 7.9295528e-39
-0.036821906 -0.21464476 0.94300002 8.6671179e-39
-0.034914289 -0.21396191 0.94000006 8.4827294e-39
-0.032947619 -0.21282382 0.93500006 8.0217513e-39
-0.031100003 -0.21236856 0.93300003 8.2965501e-39
-0.029322859 -0.21236856 0.93300003 6.6370288e-39
-0.027604764 -0.21282382 0.93500006 5.2508573e-39
-0.025768572 -0.21236856 0.93300003 2.5771841e-39
-0.023862859 -0.21123049 0.92800003 3.0370832e-39
-0.022095239 -0.21123049 0.92800003 2.6683007e-39
-0.020327618 -0.21123049 0.92800003 5.6041653e-39
-0.01856 -0.21123049 0.92800003 8.3700342e-39
-0.016466668 -0.20713334 0.91000003 1.0569078e-38
-0.014700953 -0.20667811 0.90800005 1.2505186e-38
-0.012942857 -0.20622286 0.90600002 1.2320722e-38
-0.011118095 -0.20440191 0.89800006 1.2044135e-38
-0.0093866661 -0.20394668 0.89600003 1.388164e-38
-0.0076371427 -0.20280857 0.89100003 1.7292878e-38
-0.0059400005 -0.20280857 0.89100003 1.399144e-38
-0.004242857 -0.20280857 0.89100003 1.3161679e-38
-0.0025457144 -0.20280857 0.89100003 1.2618201e-38
0.0056733335 -0.19370382 0.85100001 1.4107335e-38
0.0072942856 -0.19370382 0.85100001 1.3552082e-38
0.0089152381 -0.19370382 0.85100001 1.2998908e-38
0.010511429 -0.19324858 0.84900004 1.1802532e-38
0.012128572 -0.19324858 0.84900004 1.1802532e-38
0.013745715 -0.19324858 0.84900004 1.1801081e-38
0.015362858 -0.19324858 0.84900004 1.1340103e-38
-0.044613335 -0.21578287 0.95600003 1.2261706e-38
-0.042702857 -0.21533144 0.95400006 1.1893577e-38
-0.040885717 -0.21533144 0.95400006 8.3901428e-39
-0.038740952 -0.21352573 0.94600004 8.3887457e-39
-0.036821906 -0.21284857 0.94300002 8.7575283e-39
-0.034914289 -0.21217144 0.94000006 8.5738433e-39
-0.032947619 -0.21104287 0.93500006 8.389452e-39
-0.031100003 -0.21059144 0.93300003 8.29619e-39
-0.029322859 -0.21059144 0.93300003 7.0054512e-39
-0.027693333 -0.21172 0.93800002 5.7139935e-39
-0.025768572 -0.21059144 0.93300003 2.3949508e-39
-0.023914289 -0.2099143 0.93000007 3.0349126e-39
-0.022095239 -0.20946287 0.92800003 2.942717e-39
-0.020327618 -0.20946287 0.92800003 6.1555398e-39
-0.01856 -0.20946287 0.92800003 9.3823869e-39
-0.016611429 -0.20720573 0.91800004 1.0663062e-38
-0.014700953 -0.20494859 0.90800005 9.8333009e-39
-0.012971429 -0.20494859 0.90800005 1.1304388e-38
-0.011118095 -0.20269145 0.89800006 1.2871714e-38
-0.0093866661 -0.20224001 0.89600003 1.3332076e-38
-0.0076628574 -0.20178857 0.89400005 1.6374531e-38
-0.0059400005 -0.20111144 0.89100003 1.5091671e-38
-0.004242857 -0.20111144 0.89100003 1.6105822e-38
0.0056600003 -0.19163144 0.84900004 1.1346661e-38
0.0072771432 -0.19163144 0.84900004 1.3185086e-38
0.0088942861 -0.19163144 0.84900004 1.1802152e-38
0.010511429 -0.19163144 0.84900004 1.1433752e-38
0.012100001 -0.19118001 0.84700006 1.1341556e-38
0.013713335 -0.19118001 0.84700006 1.1709236e-38
0.015326667 -0.19118001 0.84700006 1.1524845e-38
0.01708 -0.19276001 0.85400003 9.4955053e-39
0.018706666 -0.19276001 0.85400003 8.4813534e-39
0.020333333 -0.19276001 0.85400003 1.087588e-38
-0.044613335 -0.2139619 0.95600003 9.7731445e-39
-0.042702857 -0.2135143 0.95400006 1.0323036e-38
-0.040885717 -0.2135143 0.95400006 8.940102e-39
-0.038740952 -0.21172382 0.94600004 8.6649795e-39
-0.036821906 -0.21105239 0.94300002 8.6649795e-39
-0.034914289 -0.21038096 0.94000006 8.3887457e-39
-0.033053335 -0.20993334 0.93800002 8.3887457e-39
-0.031166669 -0.20926192 0.93500006 8.1125092e-39
-0.029385716 -0.20926192 0.93500006 7.0983572e-39
-0.027693333 -0.20993334 0.93800002 6.3582965e-39
-0.025823811 -0.20926192 0.93500006 2.9470582e-39
-0.023914289 -0.20814288 0.93000007 2.6679153e-39
-0.022095239 -0.20769523 0.92800003 2.760111e-39
-0.020327618 -0.20769523 0.92800003 6.5228748e-39
-0.01856 -0.20769523 0.92800003 1.0118504e-38
-0.016611429 -0.20545715 0.91800004 1.0481536e-38
-0.014781905 -0.2043381 0.91300005 8.8220146e-39
-0.013 -0.20366667 0.91000003 9.6466746e-39
-0.011241905 -0.20321906 0.90800005 9.9232614e-39
-0.0095123816 -0.20321906 0.90800005 1.277923e-38
0.005646667 -0.18956667 0.84700006 1.2635102e-38
0.0072600003 -0.18956667 0.84700006 1.3739018e-38
0.0088942861 -0.1900143 0.84900004 1.2079497e-38
0.010511429 -0.1900143 0.84900004 1.1341908e-38
0.012100001 -0.18956667 0.84700006 1.1434104e-38
0.013713335 -0.18956667 0.84700006 1.1249712e-38
0.015326667 -0.18956667 0.84700006 1.1341908e-38
0.01698 -0.1900143 0.84900004 1.0328469e-38
0.018640952 -0.1904619 0.85100001 7.7469917e-39
0.020333333 -0.19113334 0.85400003 1.0506339e-38
-0.044753335 -0.21280667 0.95900005 9.4036418e-39
-0.042792384 -0.21214095 0.95600003 8.389452e-39
-0.040885717 -0.21169715 0.95400006 8.5738433e-39
-0.038740952 -0.20992191 0.94600004 8.6649823e-39
-0.036821906 -0.2092562 0.94300002 8.6649823e-39
-0.034914289 -0.20859049 0.94000006 8.573137e-39
-0.033053335 -0.20814666 0.93800002 8.3887457e-39
-0.031166669 -0.20748097 0.93500006 8.2965375e-39
-0.029385716 -0.20748097 0.93500006 7.0057987e-39
-0.027693333 -0.20814666 0.93800002 6.8192774e-39
-0.025906667 -0.20814666 0.93800002 3.684626e-39
-0.023914289 -0.20637144 0.93000007 3.1282096e-39
-0.022142859 -0.20637144 0.93000007 2.9438184e-39
-0.02037143 -0.20637144 0.93000007 6.7987358e-39
-0.0186 -0.20637144 0.93000007 1.0670952e-38
-0.016701905 -0.2048181 0.92300004 1.0942835e-38
-0.014814286 -0.20304286 0.91500002 9.5599005e-39
-0.013042858 -0.20259905 0.91300005 9.5563006e-39
-0.011303809 -0.20259905 0.91300005 8.7265399e-39
0.0040333336 -0.18795334 0.84700006 9.3699223e-41
0.0056333332 -0.18750954 0.84500003 1.336987e-38
0.0072428575 -0.18750954 0.84500003 1.4290772e-38
0.0088733332 -0.18795334 0.84700006 1.244686e-38
0.010486667 -0.18795334 0.84700006 1.1434817e-38
0.012100001 -0.18795334 0.84700006 1.1619208e-38
0.013713335 -0.18795334 0.84700006 1.0881673e-38
0.015326667 -0.18795334 0.84700006 1.0605086e-38
0.01698 -0.18839714 0.84900004 9.50121e-39
0.018640952 -0.18884096 0.85100001 6.5509498e-39
0.020261904 -0.18884096 0.85100001 9.3099888e-39
-0.044753335 -0.21098 0.95900005 8.9408503e-39
-0.042792384 -0.21032001 0.95600003 8.1132182e-39
-0.040885717 -0.20988001 0.95400006 8.8507833e-39
-0.038945716 -0.20922001 0.95100003 8.9412063e-39
-0.036939051 -0.20812002 0.94600004 8.8490106e-39
-0.035025716 -0.20746 0.94300002 8.4809414e-39
-0.03312381 -0.20680001 0.94000006 8.2965501e-39
-0.031266667 -0.20636001 0.93800002 8.3887331e-39
-0.029480001 -0.20636001 0.93800002 7.7433637e-39
-0.027693333 -0.20636001 0.93800002 7.004026e-39
-0.025906667 -0.20636001 0.93800002 3.5005921e-39
-0.023991428 -0.20526001 0.93300003 3.8657551e-39
-0.022142859 -0.20460002 0.93000007 3.2203857e-39
-0.02037143 -0.20460002 0.93000007 7.5341527e-39
-0.01856 -0.20416 0.92800003 1.1314173e-38
-0.016738096 -0.20350002 0.92500007 1.0944287e-38
-0.014862858 -0.20196001 0.91800004 9.1925698e-39
-0.013114286 -0.20196001 0.91800004 8.0851586e-39
0.0040238099 -0.1859 0.84500003 3.5894765e-39
0.0056333332 -0.1859 0.84500003 1.5021729e-38
0.0072428575 -0.1859 0.84500003 1.4660612e-38
0.0088523813 -0.1859 0.84500003 1.3093286e-38
0.010461905 -0.1859 0.84500003 1.171143e-38
0.012071429 -0.1859 0.84500003 1.1434843e-38
0.013680953 -0.1859 0.84500003 1.1619219e-38
0.015290476 -0.1859 0.84500003 1.1434828e-38
0.016900001 -0.1859 0.84500003 9.8689695e-39
0.018509526 -0.1859 0.84500003 6.3655356e-39
0.020261904 -0.18722001 0.85100001 8.3879876e-39
-0.046968576 -0.2108981 0.96700007 1.1984363e-38
-0.044613335 -0.20849906 0.95600003 8.4809288e-39
-0.042792384 -0.20849906 0.95600003 8.4812917e-39
-0.040885717 -0.20806287 0.95400006 9.0344655e-39
-0.038945716 -0.20740858 0.95100003 8.9415594e-39
-0.037017144 -0.2067543 0.94800007 8.7571681e-39
-0.035025716 -0.20566382 0.94300002 8.66532e-39
-0.03312381 -0.20500953 0.94000006 8.2965375e-39
-0.031266667 -0.20457333 0.93800002 8.2968906e-39
-0.029480001 -0.20457333 0.93800002 7.9281081e-39
-0.027693333 -0.20457333 0.93800002 7.1884173e-39
-0.025823811 -0.20391907 0.93500006 3.4083965e-39
-0.023991428 -0.20348287 0.93300003 3.9579507e-39
-0.022142859 -0.20282859 0.93000007 3.8657551e-39
-0.02037143 -0.20282859 0.93000007 7.1678841e-39
-0.01856 -0.20239238 0.92800003 9.1961879e-39
-0.016738096 -0.2017381 0.92500007 9.3751337e-39
-0.014976191 -0.2017381 0.92500007 8.6375687e-39
0.0040238099 -0.18429048 0.84500003 4.4214119e-39
0.0056333332 -0.18429048 0.84500003 1.2073649e-38
0.0072428575 -0.18429048 0.84500003 1.5118639e-38
0.0088523813 -0.18429048 0.84500003 1.7792312e-38
0.010461905 -0.18429048 0.84500003 1.69619e-38
0.012071429 -0.18429048 0.84500003 1.5763356e-38
0.013680953 -0.18429048 0.84500003 1.5949166e-38
0.015290476 -0.18429048 0.84500003 1.6871122e-38
0.016900001 -0.18429048 0.84500003 1.6410128e-38
0.018509526 -0.18429048 0.84500003 1.0509608e-38
0.020119047 -0.18429048 0.84500003 9.1252192e-39
-0.046822857 -0.20840763 0.96400005 1.1151365e-38
-0.044613335 -0.20667811 0.95600003 9.2152568e-39
-0.042792384 -0.20667811 0.95600003 8.665683e-39
-0.040885717 -0.20624572 0.95400006 9.0344655e-39
-0.038945716 -0.20559715 0.95100003 8.8493638e-39
-0.037017144 -0.20494859 0.94800007 8.7571681e-39
-0.035137143 -0.20451619 0.94600004 8.4805882e-39
-0.03312381 -0.20321907 0.94000006 8.2040014e-39
-0.031266667 -0.20278667 0.93800002 8.2965375e-39
-0.029480001 -0.20278667 0.93800002 8.3887331e-39
-0.027693333 -0.20278667 0.93800002 7.1894991e-39
-0.025823811 -0.2021381 0.93500006 3.5016739e-39
-0.023991428 -0.20170571 0.93300003 4.1434083e-39
-0.022142859 -0.20105715 0.93000007 4.0512127e-39
-0.02037143 -0.20105715 0.93000007 6.8034147e-39
-0.01856 -0.20062476 0.92800003 7.4487842e-39
-0.016738096 -0.19997621 0.92500007 7.812515e-39
-0.014976191 -0.19997621 0.92500007 7.6281237e-39
-0.013214286 -0.19997621 0.92500007 7.1682596e-39
0.0056200004 -0.18224858 0.84300005 1.1240975e-38
0.0072257146 -0.18224858 0.84300005 1.281306e-38
0.0088314293 -0.18224858 0.84300005 1.7607233e-38
0.010437143 -0.18224858 0.84300005 1.7423943e-38
0.012042858 -0.18224858 0.84300005 1.6133204e-38
0.013648572 -0.18224858 0.84300005 1.6500895e-38
0.015290476 -0.18268095 0.84500003 1.7422851e-38
0.016860001 -0.18224858 0.84300005 1.7697667e-38
0.018465716 -0.18224858 0.84300005 1.1428364e-38
0.020071428 -0.18224858 0.84300005 1.0412699e-38
-0.046822857 -0.20657143 0.96400005 8.7568248e-39
-0.044893336 -0.20614287 0.96200007 8.5724335e-39
-0.042926669 -0.20550001 0.95900005 8.573137e-39
-0.040885717 -0.20442858 0.95400006 8.8497239e-39
-0.038945716 -0.20378572 0.95100003 8.8493638e-39
-0.037017144 -0.20314287 0.94800007 8.6649725e-39
-0.035137143 -0.20271429 0.94600004 8.3883926e-39
-0.033229522 -0.20207143 0.94300002 8.2040014e-39
-0.031333335 -0.20142858 0.94000006 8.2043419e-39
-0.02954286 -0.20142858 0.94000006 8.4809288e-39
-0.027693333 -0.20100001 0.93800002 7.5579215e-39
-0.025906667 -0.20100001 0.93800002 4.1466832e-39
-0.023991428 -0.19992857 0.93300003 4.3274493e-39
-0.022214286 -0.19992857 0.93300003 4.4196449e-39
-0.020437144 -0.19992857 0.93300003 6.6215374e-39
-0.0186 -0.19928573 0.93000007 6.4371462e-39
-0.016792381 -0.19885714 0.92800003 7.1693232e-39
-0.014976191 -0.19821429 0.92500007 7.4459101e-39
-0.013214286 -0.19821429 0.92500007 6.9874557e-39
0.0040238099 -0.18107143 0.84500003 5.524175e-39
0.0056200004 -0.18064287 0.84300005 7.3680876e-39
0.0072257146 -0.18064287 0.84300005 9.4013927e-39
0.0088314293 -0.18064287 0.84300005 1.0784327e-38
0.010437143 -0.18064287 0.84300005 1.0875892e-38
0.012042858 -0.18064287 0.84300005 1.0875892e-38
0.013648572 -0.18064287 0.84300005 1.1154264e-38
0.015254286 -0.18064287 0.84300005 1.2260612e-38
0.016860001 -0.18064287 0.84300005 1.2259557e-38
0.018465716 -0.18064287 0.84300005 1.0692231e-38
0.020071428 -0.18064287 0.84300005 1.0690374e-38
-0.044986669 -0.20473525 0.96400005 8.4820008e-39
-0.043150477 -0.20473525 0.96400005 8.6653326e-39
-0.040971428 -0.20303619 0.95600003 8.9419195e-39
-0.039068572 -0.20261145 0.95400006 8.6653326e-39
-0.037017144 -0.20133716 0.94800007 8.573137e-39
-0.035137143 -0.20091239 0.94600004 8.4805812e-39
-0.033229522 -0.20027524 0.94300002 8.29619e-39
-0.031333335 -0.1996381 0.94000006 8.112149e-39
-0.02954286 -0.1996381 0.94000006 8.4809316e-39
-0.027693333 -0.19921334 0.93800002 7.8345028e-39
-0.025906667 -0.19921334 0.93800002 4.4232645e-39
-0.024042858 -0.19857621 0.93500006 4.420005e-39
-0.022214286 -0.19815142 0.93300003 4.3278094e-39
-0.020437144 -0.19815142 0.93300003 5.7935914e-39
-0.0186 -0.1975143 0.93000007 5.6092002e-39
-0.016828572 -0.1975143 0.93000007 6.1594775e-39
-0.015024763 -0.19708952 0.92800003 6.3438687e-39
-0.013257143 -0.19708952 0.92800003 6.6190333e-39
0.0040238099 -0.17946191 0.84500003 6.8120467e-39
0.0056200004 -0.17903715 0.84300005 8.3793725e-39
0.0072257146 -0.17903715 0.84300005 6.547717e-39
0.0088314293 -0.17903715 0.84300005 5.9945432e-39
0.010437143 -0.17903715 0.84300005 6.5470136e-39
0.012042858 -0.17903715 0.84300005 6.5470136e-39
0.013648572 -0.17903715 0.84300005 7.0079791e-39
0.015254286 -0.17903715 0.84300005 7.1923704e-39
0.016860001 -0.17903715 0.84300005 8.665711e-39
0.018465716 -0.17903715 0.84300005 7.9281459e-39
0.020071428 -0.17903715 0.84300005 8.112121e-39
-0.044986669 -0.20289905 0.96400005 8.480591e-39
-0.043150477 -0.20289905 0.96400005 8.6649795e-39
-0.040971428 -0.20121524 0.95600003 8.7571751e-39
-0.039068572 -0.20079429 0.95400006 8.7575156e-39
-0.037134286 -0.20016286 0.95100003 8.5731244e-39
-0.035137143 -0.19911048 0.94600004 8.4805812e-39
-0.033229522 -0.19847904 0.94300002 8.2039943e-39
-0.031433333 -0.19847904 0.94300002 8.29619e-39
-0.029637143 -0.19847904 0.94300002 8.9415594e-39
-0.027752383 -0.19784762 0.94000006 8.3883856e-39
-0.025906667 -0.19742666 0.93800002 4.792756e-39
-0.024042858 -0.19679524 0.93500006 3.9579577e-39
-0.022261906 -0.19679524 0.93500006 4.3267402e-39
-0.020480953 -0.19679524 0.93500006 5.4255376e-39
-0.01866 -0.1963743 0.93300003 5.4255376e-39
-0.016882857 -0.1963743 0.93300003 5.7914362e-39
-0.015105714 -0.1963743 0.93300003 5.7914362e-39
0.0040238099 -0.17785239 0.84500003 7.2763236e-39
0.0056200004 -0.17743143 0.84300005 5.8933891e-39
0.0072257146 -0.17743143 0.84300005 4.9793389e-39
0.0088314293 -0.17743143 0.84300005 4.702752e-39
0.010437143 -0.17743143 0.84300005 4.4250749e-39
0.012042858 -0.17743143 0.84300005 3.3187274e-39
0.013648572 -0.17743143 0.84300005 2.3074635e-39
0.015254286 -0.17743143 0.84300005 1.4777029e-39
0.016860001 -0.17743143 0.84300005 2.3996045e-39
0.018465716 -0.17743143 0.84300005 1.5698438e-39
0.020071428 -0.17743143 0.84300005 3.1314761e-39
-0.045126669 -0.20168857 0.96700007 8.6653228e-39
-0.043150477 -0.20106287 0.96400005 8.7571681e-39
-0.041100003 -0.20002002 0.95900005 8.7571681e-39
-0.039150476 -0.1993943 0.95600003 8.5731244e-39
-0.037134286 -0.19835144 0.95100003 8.66532e-39
-0.035211433 -0.19772573 0.94800007 8.4809414e-39
-0.033335239 -0.19730859 0.94600004 8.3887457e-39
-0.031433333 -0.19668286 0.94300002 8.4805882e-39
-0.029637143 -0.19668286 0.94300002 8.8493708e-39
-0.027840951 -0.19668286 0.94300002 8.3880325e-39
-0.025961906 -0.19605716 0.94000006 4.0548379e-39
-0.024119999 -0.19564001 0.93800002 3.7735594e-39
-0.022333333 -0.19564001 0.93800002 4.3267332e-39
-0.020546667 -0.19564001 0.93800002 4.9667076e-39
-0.018759999 -0.19564001 0.93800002 4.7823164e-39
-0.016973333 -0.19564001 0.93800002 4.9649126e-39
-0.015445715 -0.19897716 0.95400006 4.9649126e-39
0.0040142857 -0.17582572 0.84300005 8.4758995e-39
0.0056200004 -0.17582572 0.84300005 5.3412481e-39
0.0072257146 -0.17582572 0.84300005 5.0697283e-39
0.0088314293 -0.17582572 0.84300005 5.7150977e-39
0.010437143 -0.17582572 0.84300005 5.2551915e-39
0.012042858 -0.17582572 0.84300005 4.148844e-39
0.013648572 -0.17582572 0.84300005 3.6875127e-39
0.015254286 -0.17582572 0.84300005 2.857752e-39
0.016860001 -0.17582572 0.84300005 2.3989039e-39
0.018465716 -0.17582572 0.84300005 1.4769476e-39
0.020071428 -0.17582572 0.84300005 2.1197582e-39
-0.045126669 -0.19984668 0.96700007 8.6642564e-39
-0.043150477 -0.19922666 0.96400005 8.7571681e-39
-0.041314285 -0.19922666 0.96400005 8.5727769e-39
-0.039150476 -0.19757335 0.95600003 8.3890863e-39
-0.037251431 -0.19716001 0.95400006 8.4812819e-39
-0.035322856 -0.19654 0.95100003 8.5727769e-39
-0.033405717 -0.19592002 0.94800007 8.4805812e-39
-0.031533334 -0.19550668 0.94600004 8.5727839e-39
-0.029731428 -0.19550668 0.94600004 9.2181533e-39
-0.027840951 -0.19488665 0.94300002 8.29619e-39
-0.026044762 -0.19488665 0.94300002 3.2254303e-39
-0.024171429 -0.19426668 0.94000006 3.406572e-39
-0.022380954 -0.19426668 0.94000006 4.2363326e-39
-0.020590477 -0.19426668 0.94000006 4.1427021e-39
-0.018800002 -0.19426668 0.94000006 3.9583108e-39
-0.017154286 -0.19592002 0.94800007 4.414973e-39
-0.015445715 -0.19716001 0.95400006 4.2305817e-39
-0.013628571 -0.19716001 0.95400006 4.0472442e-39
0.0040142857 -0.17422001 0.84300005 9.8545053e-39
0.0056200004 -0.17422001 0.84300005 5.1525282e-39
0.0072257146 -0.17422001 0.84300005 5.8894262e-39
0.0088314293 -0.17422001 0.84300005 7.9177301e-39
0.010437143 -0.17422001 0.84300005 7.0890344e-39
0.012042858 -0.17422001 0.84300005 6.9046431e-39
0.013648572 -0.17422001 0.84300005 5.0622019e-39
0.015254286 -0.17422001 0.84300005 4.6012238e-39
0.016860001 -0.17422001 0.84300005 4.509726e-39
0.018465716 -0.17422001 0.84300005 2.5736178e-39
0.020071428 -0.17422001 0.84300005 3.8617992e-39
-0.043284763 -0.19800477 0.96700007 8.9401217e-39
-0.041314285 -0.19739048 0.96400005 8.6635348e-39
-0.039396197 -0.19698097 0.96200007 8.4809288e-39
-0.037329525 -0.19575238 0.95600003 8.4809288e-39
-0.035434287 -0.19534287 0.95400006 8.5727769e-39
-0.033405717 -0.19411431 0.94800007 8.6649725e-39
-0.031533334 -0.19370477 0.94600004 8.8486673e-39
-0.029731428 -0.19370477 0.94600004 9.0330586e-39
-0.027988574 -0.19411431 0.94800007 8.0203135e-39
-0.02618286 -0.19411431 0.94800007 2.8573583e-39
-0.024325715 -0.19370477 0.94600004 2.7637207e-39
-0.022523811 -0.19370477 0.94600004 3.685677e-39
-0.020831428 -0.19472858 0.95100003 3.6853239e-39
-0.01912 -0.19575238 0.95600003 3.5009326e-39
-0.017299049 -0.19575238 0.95600003 3.7750042e-39
-0.015445715 -0.19534287 0.95400006 3.6828085e-39
