# .PCD v0.7 - Point Cloud Data file format
VERSION 0.7
FIELDS x y z rgb
SIZE 4 4 4 4
TYPE F F F F
COUNT 1 1 1 1
WIDTH 965
HEIGHT 1
VIEWPOINT 0 0 0 1 0 0 0
POINTS 965
DATA ascii
-0.016919049 -0.26269048 0.93500006 6.276207e-39
-0.015186667 -0.26353335 0.93800002 2.8649687e-39
-0.013514286 -0.26578096 0.94600004 5.6480175e-40
-0.011712381 -0.26578096 0.94600004 4.990192e-39
-0.0099104764 -0.26578096 0.94600004 9.9619317e-39
-0.0081085712 -0.26578096 0.94600004 1.2082431e-38
-0.0063066669 -0.26578096 0.94600004 1.2265731e-38
-0.0045142858 -0.26634288 0.94800007 1.1804753e-38
-0.095504761 -0.25672379 0.92000002 2.2775202e-38
-0.093752384 -0.25672379 0.92000002 2.341769e-38
-0.092299998 -0.25756097 0.92300004 2.341769e-38
-0.090541907 -0.25756097 0.92300004 2.341769e-38
-0.088783816 -0.25756097 0.92300004 2.341769e-38
-0.087025717 -0.25756097 0.92300004 2.3326213e-38
-0.085267626 -0.25756097 0.92300004 2.0007171e-38
-0.083690479 -0.25811908 0.92500007 1.6413028e-38
-0.081928581 -0.25811908 0.92500007 9.4983555e-39
-0.080166668 -0.25811908 0.92500007 3.7331011e-40
-0.078404762 -0.25811908 0.92500007 2.0178698e-43
-0.076477148 -0.25756097 0.92300004 2.1636048e-42
-0.074719049 -0.25756097 0.92300004 4.6350189e-40
-0.072565712 -0.25616571 0.91800004 2.8674154e-39
-0.07058572 -0.25532857 0.91500002 8.0303707e-39
-0.068842858 -0.25532857 0.91500002 1.1068595e-38
-0.067100003 -0.25532857 0.91500002 1.1898355e-38
-0.065357141 -0.25532857 0.91500002 1.1073709e-38
-0.063614286 -0.25532857 0.91500002 1.1073709e-38
-0.061871432 -0.25532857 0.91500002 1.0247549e-38
-0.060128573 -0.25532857 0.91500002 9.8787716e-39
-0.058385715 -0.25532857 0.91500002 9.7862187e-39
-0.05664286 -0.25532857 0.91500002 5.9140204e-39
-0.054899998 -0.25532857 0.91500002 3.4319131e-39
-0.053157143 -0.25532857 0.91500002 5.4602169e-39
-0.051414285 -0.25532857 0.91500002 7.5735263e-39
-0.04967143 -0.25532857 0.91500002 9.0486564e-39
-0.048085716 -0.25616571 0.91800004 9.7858585e-39
-0.046337146 -0.25616571 0.91800004 9.9702484e-39
-0.044685714 -0.25672379 0.92000002 9.3266824e-39
-0.043073334 -0.25756097 0.92300004 9.7876536e-39
-0.041315239 -0.25756097 0.92300004 1.043122e-38
-0.039557144 -0.25756097 0.92300004 7.1121951e-39
-0.037799049 -0.25756097 0.92300004 4.5368159e-39
-0.036119051 -0.25811908 0.92500007 5.4587722e-39
-0.034357145 -0.25811908 0.92500007 7.2980086e-39
-0.03259524 -0.25811908 0.92500007 9.0497256e-39
-0.030833337 -0.25811908 0.92500007 9.0500998e-39
-0.029165715 -0.25895622 0.92800003 8.8657113e-39
-0.027398096 -0.25895622 0.92800003 9.1426527e-39
-0.025630476 -0.25895622 0.92800003 9.6036239e-39
-0.023862859 -0.25895622 0.92800003 1.1165186e-38
-0.022095239 -0.25895622 0.92800003 8.4915324e-39
-0.02037143 -0.2595143 0.93000007 9.1342814e-39
-0.0186 -0.2595143 0.93000007 1.0240629e-38
-0.016919049 -0.26090953 0.93500006 1.0790173e-38
-0.015138096 -0.26090953 0.93500006 1.0329195e-38
-0.013514286 -0.26397905 0.94600004 9.31866e-39
-0.011675238 -0.2631419 0.94300002 9.5952469e-39
-0.009879048 -0.2631419 0.94300002 9.04319e-39
-0.0080828574 -0.2631419 0.94300002 6.7382992e-39
-0.0063066669 -0.26397905 0.94600004 5.4505031e-39
-0.0045142858 -0.26453716 0.94800007 5.0817206e-39
-0.0027085717 -0.26453716 0.94800007 7.7521372e-39
-0.00090285722 -0.26453716 0.94800007 1.0794593e-38
0.00090285722 -0.26453716 0.94800007 1.226539e-38
-0.095816195 -0.25580287 0.92300004 2.3325856e-38
-0.094058096 -0.25580287 0.92300004 2.341769e-38
-0.092299998 -0.25580287 0.92300004 2.341769e-38
-0.090541907 -0.25580287 0.92300004 2.341769e-38
-0.088783816 -0.25580287 0.92300004 2.341769e-38
-0.087025717 -0.25580287 0.92300004 2.341769e-38
-0.085267626 -0.25580287 0.92300004 2.3325494e-38
-0.083690479 -0.25635716 0.92500007 2.1391212e-38
-0.081928581 -0.25635716 0.92500007 1.7703388e-38
-0.080166668 -0.25635716 0.92500007 1.0979318e-38
-0.078404762 -0.25635716 0.92500007 1.0023348e-40
-0.076642863 -0.25635716 0.92500007 9.1946199e-41
-0.074880958 -0.25635716 0.92500007 9.1946199e-41
-0.073119059 -0.25635716 0.92500007 9.4443313e-41
-0.070817143 -0.25441715 0.91800004 4.7964204e-39
-0.069068573 -0.25441715 0.91800004 4.7135799e-39
-0.067320004 -0.25441715 0.91800004 7.66384e-39
-0.065357141 -0.25358573 0.91500002 8.6801682e-39
-0.063614286 -0.25358573 0.91500002 1.033969e-38
-0.061871432 -0.25358573 0.91500002 1.0064954e-38
-0.060128573 -0.25358573 0.91500002 9.3273943e-39
-0.058385715 -0.25358573 0.91500002 8.5876755e-39
-0.05664286 -0.25358573 0.91500002 6.6515672e-39
-0.054899998 -0.25358573 0.91500002 4.7161905e-39
-0.053157143 -0.25358573 0.91500002 7.574255e-39
-0.051414285 -0.25358573 0.91500002 8.4036528e-39
-0.049834289 -0.25441715 0.91800004 9.1412178e-39
-0.048085716 -0.25441715 0.91800004 9.0504585e-39
-0.046438098 -0.25497141 0.92000002 9.5114296e-39
-0.044685714 -0.25497141 0.92000002 9.7869361e-39
-0.043073334 -0.25580287 0.92300004 9.325965e-39
-0.041315239 -0.25580287 0.92300004 9.1408422e-39
-0.039557144 -0.25580287 0.92300004 6.5593646e-39
-0.037799049 -0.25580287 0.92300004 2.9720167e-39
-0.036119051 -0.25635716 0.92500007 6.383255e-39
-0.034357145 -0.25635716 0.92500007 8.4958456e-39
-0.03259524 -0.25635716 0.92500007 9.2334106e-39
-0.030833337 -0.25635716 0.92500007 8.5909223e-39
-0.02907143 -0.25635716 0.92500007 8.7753107e-39
-0.027398096 -0.25718856 0.92800003 1.0062801e-38
-0.025630476 -0.25718856 0.92800003 9.509636e-39
-0.023862859 -0.25718856 0.92800003 9.3241447e-39
-0.022095239 -0.25718856 0.92800003 7.8490146e-39
-0.02037143 -0.25774285 0.93000007 9.4097472e-39
-0.0186 -0.25774285 0.93000007 1.0977073e-38
-0.016919049 -0.2591286 0.93500006 1.1619208e-38
-0.015138096 -0.2591286 0.93500006 1.1434817e-38
-0.013428572 -0.26051429 0.94000006 1.1251156e-38
-0.011675238 -0.26134571 0.94300002 1.1527743e-38
-0.009879048 -0.26134571 0.94300002 9.1364492e-39
-0.0080828574 -0.26134571 0.94300002 5.5408196e-39
-0.0063066669 -0.26217714 0.94600004 1.0330442e-39
-0.0045142858 -0.26273143 0.94800007 5.7206609e-40
-0.0027085717 -0.26273143 0.94800007 9.4187856e-40
-0.00090285722 -0.26273143 0.94800007 4.4453125e-39
0.00090095244 -0.26217714 0.94600004 9.3208657e-39
0.0027028571 -0.26217714 0.94600004 1.0888191e-38
-0.094058096 -0.25404477 0.92300004 2.341769e-38
-0.092299998 -0.25404477 0.92300004 2.341769e-38
-0.090541907 -0.25404477 0.92300004 2.341769e-38
-0.088783816 -0.25404477 0.92300004 2.3141103e-38
-0.087025717 -0.25404477 0.92300004 2.2680844e-38
-0.085267626 -0.25404477 0.92300004 2.3326213e-38
-0.083509527 -0.25404477 0.92300004 2.341769e-38
-0.081751429 -0.25404477 0.92300004 2.341769e-38
-0.080166668 -0.25459525 0.92500007 2.2219525e-38
-0.078404762 -0.25459525 0.92500007 2.1020982e-38
-0.076642863 -0.25459525 0.92500007 1.8440568e-38
-0.074880958 -0.25459525 0.92500007 1.1525896e-38
-0.073119059 -0.25459525 0.92500007 5.0801946e-39
-0.071357146 -0.25459525 0.92500007 3.3126696e-42
-0.069068573 -0.25266856 0.91800004 4.3047889e-42
-0.067100003 -0.25184286 0.91500002 1.8869325e-40
-0.065357141 -0.25184286 0.91500002 3.7786714e-40
-0.063614286 -0.25184286 0.91500002 6.64717e-39
-0.061871432 -0.25184286 0.91500002 7.112551e-39
-0.060128573 -0.25184286 0.91500002 7.0203554e-39
-0.058385715 -0.25184286 0.91500002 7.2036312e-39
-0.05664286 -0.25184286 0.91500002 7.8490006e-39
-0.054899998 -0.25184286 0.91500002 8.493312e-39
-0.053157143 -0.25184286 0.91500002 9.8762465e-39
-0.051414285 -0.25184286 0.91500002 9.325965e-39
-0.049834289 -0.25266856 0.91800004 9.6025477e-39
-0.048085716 -0.25266856 0.91800004 9.3266824e-39
-0.046438098 -0.25321904 0.92000002 9.4188767e-39
-0.044685714 -0.25321904 0.92000002 9.8784129e-39
-0.043073334 -0.25404477 0.92300004 6.9281723e-39
-0.041315239 -0.25404477 0.92300004 4.6297458e-39
-0.039557144 -0.25404477 0.92300004 5.2751152e-39
-0.037799049 -0.25404477 0.92300004 6.7459041e-39
-0.036119051 -0.25459525 0.92500007 8.8664035e-39
-0.034357145 -0.25459525 0.92500007 9.6025477e-39
-0.03259524 -0.25459525 0.92500007 9.6025477e-39
-0.030833337 -0.25459525 0.92500007 9.2352057e-39
-0.02907143 -0.25459525 0.92500007 9.5117884e-39
-0.027398096 -0.25542095 0.92800003 1.0245037e-38
-0.025630476 -0.25542095 0.92800003 6.7416231e-39
-0.023862859 -0.25542095 0.92800003 5.0831317e-39
-0.022095239 -0.25542095 0.92800003 5.4519142e-39
-0.02037143 -0.25597143 0.93000007 7.9338534e-39
-0.0186 -0.25597143 0.93000007 1.033094e-38
-0.016919049 -0.25734764 0.93500006 1.1525918e-38
-0.015186667 -0.25817332 0.93800002 1.1433722e-38
-0.013428572 -0.2587238 0.94000006 1.1342258e-38
-0.011675238 -0.25954953 0.94300002 1.2264215e-38
-0.009879048 -0.25954953 0.94300002 1.0699424e-38
-0.0080828574 -0.25954953 0.94300002 9.6852719e-39
-0.0063066669 -0.26037526 0.94600004 6.4635564e-39
-0.0045142858 -0.26092574 0.94800007 4.9884264e-39
-0.0027085717 -0.26092574 0.94800007 1.1258943e-39
-0.00090285722 -0.26092574 0.94800007 1.9186579e-41
0.00090095244 -0.26037526 0.94600004 7.5460062e-40
0.0027028571 -0.26037526 0.94600004 2.1375351e-39
0.0045142858 -0.26092574 0.94800007 6.2770422e-39
0.0063733337 -0.26312762 0.95600003 1.0425839e-38
0.0081942854 -0.26312762 0.95600003 1.2999355e-38
0.010046667 -0.26395333 0.95900005 1.3091551e-38
-0.094261907 -0.25283334 0.92500007 2.3326213e-38
-0.092299998 -0.25228667 0.92300004 2.3141822e-38
-0.090541907 -0.25228667 0.92300004 2.1761065e-38
-0.088495232 -0.25146666 0.92000002 2.0654718e-38
-0.086742856 -0.25146666 0.92000002 1.5040488e-38
-0.084990472 -0.25146666 0.92000002 1.7437575e-38
-0.083509527 -0.25228667 0.92300004 2.2125882e-38
-0.081751429 -0.25228667 0.92300004 2.2955643e-38
-0.079993337 -0.25228667 0.92300004 2.2954927e-38
-0.078404762 -0.25283334 0.92500007 2.2770535e-38
-0.076642863 -0.25283334 0.92500007 2.2035494e-38
-0.074880958 -0.25283334 0.92500007 1.9730603e-38
-0.073356189 -0.25365332 0.92800003 1.1720132e-38
-0.071588568 -0.25365332 0.92800003 6.5571772e-39
-0.069068573 -0.25092 0.91800004 1.9027391e-40
-0.067100003 -0.25010002 0.91500002 1.2051167e-43
-0.065357141 -0.25010002 0.91500002 7.2166871e-43
-0.063614286 -0.25010002 0.91500002 3.5045157e-39
-0.061871432 -0.25010002 0.91500002 5.6312328e-39
-0.060128573 -0.25010002 0.91500002 5.1702546e-39
-0.058385715 -0.25010002 0.91500002 6.3720474e-39
-0.05664286 -0.25010002 0.91500002 8.4925469e-39
-0.055080004 -0.25092 0.91800004 8.678432e-39
-0.053331427 -0.25092 0.91800004 9.6003883e-39
-0.051582858 -0.25092 0.91800004 8.7753107e-39
-0.049834289 -0.25092 0.91800004 9.0518934e-39
-0.048085716 -0.25092 0.91800004 9.5110709e-39
-0.046438098 -0.25146666 0.92000002 9.142294e-39
-0.044685714 -0.25146666 0.92000002 9.2326819e-39
-0.043073334 -0.25228667 0.92300004 6.1902262e-39
-0.041315239 -0.25228667 0.92300004 2.8798337e-39
-0.039557144 -0.25228667 0.92300004 6.291072e-39
-0.037799049 -0.25228667 0.92300004 8.219609e-39
-0.036119051 -0.25283334 0.92500007 9.0493697e-39
-0.034357145 -0.25283334 0.92500007 9.1426527e-39
-0.03259524 -0.25283334 0.92500007 9.4192354e-39
-0.030833337 -0.25283334 0.92500007 9.6039826e-39
-0.02907143 -0.25283334 0.92500007 8.6820375e-39
-0.027398096 -0.25365332 0.92800003 9.0464886e-39
-0.025630476 -0.25365332 0.92800003 4.8976853e-39
-0.023862859 -0.25365332 0.92800003 5.9967531e-39
-0.022142859 -0.25420004 0.93000007 6.7343181e-39
-0.020437144 -0.25501999 0.93300003 7.0090357e-39
-0.01866 -0.25501999 0.93300003 7.930992e-39
-0.016919049 -0.25556669 0.93500006 9.2210273e-39
-0.015138096 -0.25556669 0.93500006 1.0603962e-38
-0.013400001 -0.25638667 0.93800002 1.115822e-38
-0.011675238 -0.25775331 0.94300002 1.1342611e-38
-0.009879048 -0.25775331 0.94300002 1.1525571e-38
-0.0080828574 -0.25775331 0.94300002 1.1156788e-38
-0.0063066669 -0.25857335 0.94600004 1.0604733e-38
-0.0045047617 -0.25857335 0.94600004 9.2217981e-39
-0.0027028571 -0.25857335 0.94600004 7.1978074e-39
-0.00090095244 -0.25857335 0.94600004 3.5099822e-39
0.00090095244 -0.25857335 0.94600004 7.5028463e-40
0.0027028571 -0.25857335 0.94600004 1.7644366e-39
0.0045142858 -0.25912002 0.94800007 9.4152964e-40
0.0063600005 -0.26076001 0.95400006 5.3669199e-39
0.0081942854 -0.26130667 0.95600003 1.2356847e-38
0.010046667 -0.26212665 0.95900005 1.2633434e-38
0.011873334 -0.26212665 0.95900005 1.2904967e-38
0.013742859 -0.2629467 0.96200007 1.2720575e-38
0.015575239 -0.2629467 0.96200007 1.2170273e-38
0.01740762 -0.2629467 0.96200007 1.1985882e-38
0.019240001 -0.2629467 0.96200007 1.1893671e-38
0.021006668 -0.26212665 0.95900005 1.1617084e-38
-0.090541907 -0.2505286 0.92300004 5.0848889e-39
-0.088495232 -0.2497143 0.92000002 6.9266183e-42
-0.086742856 -0.2497143 0.92000002 9.7216482e-41
-0.084990472 -0.2497143 0.92000002 9.7216482e-41
-0.083509527 -0.2505286 0.92300004 2.6688094e-39
-0.081751429 -0.2505286 0.92300004 1.4746412e-38
-0.079993337 -0.2505286 0.92300004 1.9174498e-38
-0.078404762 -0.25107145 0.92500007 2.2677932e-38
-0.076642863 -0.25107145 0.92500007 2.286345e-38
-0.074880958 -0.25107145 0.92500007 2.3416615e-38
-0.073751427 -0.25324285 0.93300003 2.2587943e-38
-0.071742855 -0.25242859 0.93000007 1.7332794e-38
-0.06959524 -0.25107145 0.92500007 1.3825789e-38
-0.067833342 -0.25107145 0.92500007 7.7408778e-39
-0.065714285 -0.2497143 0.92000002 3.6839212e-39
-0.063614286 -0.24835713 0.91500002 1.1024435e-39
-0.061871432 -0.24835713 0.91500002 9.6524241e-41
-0.060128573 -0.24835713 0.91500002 2.401415e-39
-0.058385715 -0.24835713 0.91500002 2.2254273e-39
-0.05664286 -0.24835713 0.91500002 8.4947301e-39
-0.055080004 -0.24917144 0.91800004 1.0701679e-38
-0.053331427 -0.24917144 0.91800004 1.1623635e-38
-0.051582858 -0.24917144 0.91800004 1.0614173e-38
-0.049834289 -0.24917144 0.91800004 1.0614173e-38
-0.048085716 -0.24917144 0.91800004 1.0614891e-38
-0.046438098 -0.2497143 0.92000002 7.7568288e-39
-0.044831429 -0.2505286 0.92300004 5.2736705e-39
-0.043073334 -0.2505286 0.92300004 5.1814748e-39
-0.041315239 -0.2505286 0.92300004 6.8380969e-39
-0.039557144 -0.2505286 0.92300004 9.050792e-39
-0.037799049 -0.2505286 0.92300004 9.6011127e-39
-0.036119051 -0.25107145 0.92500007 9.2323316e-39
-0.034357145 -0.25107145 0.92500007 8.8667875e-39
-0.03259524 -0.25107145 0.92500007 9.4199529e-39
-0.030833337 -0.25107145 0.92500007 1.0155354e-38
-0.02907143 -0.25107145 0.92500007 7.1129111e-39
-0.027398096 -0.25188571 0.92800003 5.6377558e-39
-0.025630476 -0.25188571 0.92800003 1.3045612e-39
-0.023862859 -0.25188571 0.92800003 2.8660645e-39
-0.022142859 -0.25242859 0.93000007 5.9085203e-39
-0.020437144 -0.25324285 0.93300003 7.2845716e-39
-0.01866 -0.25324285 0.93300003 7.0079847e-39
-0.016919049 -0.25378573 0.93500006 7.0093888e-39
-0.015138096 -0.25378573 0.93500006 7.1937801e-39
-0.013400001 -0.25460002 0.93800002 7.9303039e-39
-0.011638097 -0.25514287 0.94000006 9.4976296e-39
-0.0098476186 -0.25514287 0.94000006 1.0325946e-38
-0.0080571435 -0.25514287 0.94000006 1.1247902e-38
-0.006266667 -0.25514287 0.94000006 1.0973125e-38
-0.0044904761 -0.25595716 0.94300002 1.1710691e-38
-0.0027028571 -0.25677145 0.94600004 1.106782e-38
-0.00090095244 -0.25677145 0.94600004 1.0238059e-38
0.00090095244 -0.25677145 0.94600004 8.7651331e-39
0.0027028571 -0.25677145 0.94600004 6.552438e-39
0.0045142858 -0.25731429 0.94800007 3.7945229e-39
0.0063600005 -0.25894287 0.95400006 3.9789141e-39
0.0081942854 -0.25948572 0.95600003 1.0701232e-38
0.010015239 -0.25948572 0.95600003 1.1807579e-38
0.011873334 -0.26030001 0.95900005 1.1896257e-38
0.013700001 -0.26030001 0.95900005 1.1250888e-38
0.015526668 -0.26030001 0.95900005 1.1989873e-38
0.017353334 -0.26030001 0.95900005 1.2819633e-38
0.019180002 -0.26030001 0.95900005 1.2723822e-38
0.022714287 -0.25894287 0.95400006 1.1526274e-38
-0.090541907 -0.24877049 0.92300004 2.7576741e-39
-0.088495232 -0.24796192 0.92000002 9.1842503e-40
-0.086742856 -0.24796192 0.92000002 3.5873241e-43
-0.084990472 -0.24796192 0.92000002 7.1746481e-43
-0.083509527 -0.24877049 0.92300004 1.8474719e-40
-0.081751429 -0.24877049 0.92300004 3.5959827e-39
-0.079993337 -0.24877049 0.92300004 1.3913586e-38
-0.078404762 -0.24930954 0.92500007 1.953752e-38
-0.076642863 -0.24930954 0.92500007 2.0189045e-38
-0.074880958 -0.24930954 0.92500007 2.2309545e-38
-0.07351429 -0.25065717 0.93000007 2.313788e-38
-0.071742855 -0.25065717 0.93000007 1.7421752e-38
-0.06959524 -0.24930954 0.92500007 1.6585586e-38
-0.067833342 -0.24930954 0.92500007 1.0500675e-38
-0.065928578 -0.24877049 0.92300004 7.4535037e-39
-0.06417048 -0.24877049 0.92300004 4.3188523e-39
-0.062074285 -0.24742286 0.91800004 3.7058039e-40
-0.060325716 -0.24742286 0.91800004 2.4910799e-39
-0.058577146 -0.24742286 0.91800004 2.3986152e-39
-0.056828573 -0.24742286 0.91800004 8.4835268e-39
-0.055200003 -0.24796192 0.92000002 8.582209e-39
-0.053447623 -0.24796192 0.92000002 1.0610513e-38
-0.051695239 -0.24796192 0.92000002 9.9705973e-39
-0.049942859 -0.24796192 0.92000002 9.6018148e-39
-0.048190478 -0.24796192 0.92000002 9.6925713e-39
-0.046589527 -0.24877049 0.92300004 6.9267024e-39
-0.044831429 -0.24877049 0.92300004 3.1546227e-39
-0.043073334 -0.24877049 0.92300004 6.3814698e-39
-0.041315239 -0.24877049 0.92300004 8.4029241e-39
-0.039557144 -0.24877049 0.92300004 9.5092716e-39
-0.037799049 -0.24877049 0.92300004 9.4167243e-39
-0.036119051 -0.24930954 0.92500007 9.4167243e-39
-0.034357145 -0.24930954 0.92500007 9.0508172e-39
-0.03259524 -0.24930954 0.92500007 8.4976519e-39
-0.030833337 -0.24930954 0.92500007 8.7727856e-39
-0.02907143 -0.24930954 0.92500007 7.3898511e-39
-0.027398096 -0.25011811 0.92800003 6.8319956e-39
-0.025630476 -0.25011811 0.92800003 3.2363661e-39
-0.023862859 -0.25011811 0.92800003 4.0631462e-39
-0.022142859 -0.25065717 0.93000007 6.3680369e-39
-0.020437144 -0.25146571 0.93300003 7.5615214e-39
-0.01866 -0.25146571 0.93300003 7.3771302e-39
-0.016919049 -0.25200477 0.93500006 7.6529688e-39
-0.015138096 -0.25200477 0.93500006 7.3763819e-39
-0.013400001 -0.25281334 0.93800002 7.1005307e-39
-0.011613334 -0.25281334 0.93800002 7.7459001e-39
-0.0098266667 -0.25281334 0.93800002 9.4046829e-39
-0.0080400007 -0.25281334 0.93800002 1.0603226e-38
-0.0062533333 -0.25281334 0.93800002 1.0972744e-38
-0.0044761905 -0.2533524 0.94000006 1.1802505e-38
-0.0026942857 -0.25416097 0.94300002 1.1619211e-38
-0.00089809526 -0.25416097 0.94300002 1.1342624e-38
0.00090095244 -0.25496954 0.94600004 1.0330651e-38
0.0027028571 -0.25496954 0.94600004 9.6852817e-39
0.0045142858 -0.2555086 0.94800007 8.2123223e-39
0.0063399998 -0.25631714 0.95100003 7.9357354e-39
0.0081514288 -0.25631714 0.95100003 6.2805805e-39
0.010015239 -0.25766477 0.95600003 5.8196023e-39
0.011836191 -0.25766477 0.95600003 3.800669e-39
0.013700001 -0.25847334 0.95900005 4.1694515e-39
0.015526668 -0.25847334 0.95900005 7.7560707e-39
0.017299049 -0.25766477 0.95600003 9.6921789e-39
0.01912 -0.25766477 0.95600003 1.1622141e-38
0.020897144 -0.25712574 0.95400006 1.1714337e-38
0.022714287 -0.25712574 0.95400006 1.2355733e-38
-0.090541907 -0.24701239 0.92300004 9.6499017e-41
-0.088783816 -0.24701239 0.92300004 1.9404116e-39
-0.087025717 -0.24701239 0.92300004 3.7815146e-39
-0.085267626 -0.24701239 0.92300004 3.2283408e-39
-0.083509527 -0.24701239 0.92300004 1.9357579e-39
-0.081751429 -0.24701239 0.92300004 3.6843219e-40
-0.079993337 -0.24701239 0.92300004 4.5953621e-40
-0.078235239 -0.24701239 0.92300004 9.2051156e-40
-0.076477148 -0.24701239 0.92300004 4.3178224e-39
-0.074880958 -0.24754763 0.92500007 1.5473494e-38
-0.073119059 -0.24754763 0.92500007 1.5478108e-38
-0.071742855 -0.24888572 0.93000007 1.5293717e-38
-0.06959524 -0.24754763 0.92500007 1.6213508e-38
-0.067833342 -0.24754763 0.92500007 1.1695922e-38
-0.066071436 -0.24754763 0.92500007 8.7377657e-39
-0.064309523 -0.24754763 0.92500007 8.7377657e-39
-0.062547624 -0.24754763 0.92500007 6.7169925e-39
-0.060785718 -0.24754763 0.92500007 6.4404056e-39
-0.058896191 -0.24701239 0.92300004 6.3464513e-39
-0.057138097 -0.24701239 0.92300004 6.4386469e-39
-0.055380002 -0.24701239 0.92300004 5.9908466e-39
-0.053621907 -0.24701239 0.92300004 9.4020849e-39
-0.051863808 -0.24701239 0.92300004 9.0414173e-39
-0.050105717 -0.24701239 0.92300004 9.4101998e-39
-0.048347622 -0.24701239 0.92300004 8.3996478e-39
-0.046589527 -0.24701239 0.92300004 7.3854959e-39
-0.044831429 -0.24701239 0.92300004 7.7575182e-39
-0.043073334 -0.24701239 0.92300004 8.9560614e-39
-0.041404765 -0.24754763 0.92500007 9.3241713e-39
-0.039642859 -0.24754763 0.92500007 9.4163655e-39
-0.037880953 -0.24754763 0.92500007 9.5103534e-39
-0.036119051 -0.24754763 0.92500007 9.6025477e-39
-0.034357145 -0.24754763 0.92500007 9.5103534e-39
-0.03259524 -0.24754763 0.92500007 6.4679047e-39
-0.030833337 -0.24754763 0.92500007 5.3647843e-39
-0.02907143 -0.24754763 0.92500007 6.5633275e-39
-0.027398096 -0.24835047 0.92800003 8.673753e-39
-0.025630476 -0.24835047 0.92800003 5.7234929e-39
-0.023862859 -0.24835047 0.92800003 5.6297684e-39
-0.022214286 -0.24968857 0.93300003 6.6439204e-39
-0.020437144 -0.24968857 0.93300003 7.7455497e-39
-0.01866 -0.24968857 0.93300003 7.8377454e-39
-0.016919049 -0.25022382 0.93500006 8.1132378e-39
-0.015138096 -0.25022382 0.93500006 8.1132378e-39
-0.013400001 -0.25102666 0.93800002 7.5615186e-39
-0.011613334 -0.25102666 0.93800002 7.1927361e-39
-0.0098266667 -0.25102666 0.93800002 7.3756728e-39
-0.0080400007 -0.25102666 0.93800002 7.9288466e-39
-0.0062533333 -0.25102666 0.93800002 8.7596666e-39
-0.0044666668 -0.25102666 0.93800002 1.0419188e-38
-0.0026800002 -0.25102666 0.93800002 1.1156785e-38
-0.00089523813 -0.25156191 0.94000006 1.1341177e-38
0.00089809526 -0.25236475 0.94300002 1.0974569e-38
0.0026942857 -0.25236475 0.94300002 1.1619938e-38
0.0045047617 -0.25316763 0.94600004 1.1528454e-38
0.0063399998 -0.25450572 0.95100003 1.2081628e-38
0.0081514288 -0.25450572 0.95100003 8.0272626e-39
0.010015239 -0.25584382 0.95600003 5.6301762e-39
0.011836191 -0.25584382 0.95600003 2.5084307e-39
0.013657142 -0.25584382 0.95600003 1.6627808e-41
0.015478096 -0.25584382 0.95600003 6.6096586e-40
0.017299049 -0.25584382 0.95600003 1.5829222e-39
0.01912 -0.25584382 0.95600003 4.0704329e-39
0.020831428 -0.25450572 0.95100003 8.6802144e-39
0.022642858 -0.25450572 0.95100003 1.1620033e-38
0.02453143 -0.25530857 0.95400006 1.189662e-38
-0.092500009 -0.24578573 0.92500007 1.5667442e-39
-0.090541907 -0.24525428 0.92300004 7.7071416e-44
-0.088783816 -0.24525428 0.92300004 1.3826528e-39
-0.087025717 -0.24525428 0.92300004 3.5956674e-39
-0.085267626 -0.24525428 0.92300004 4.4254281e-39
-0.083509527 -0.24525428 0.92300004 4.332138e-39
-0.081751429 -0.24525428 0.92300004 2.9492036e-39
-0.079993337 -0.24525428 0.92300004 8.2976067e-40
-0.078235239 -0.24525428 0.92300004 9.219563e-41
-0.076477148 -0.24525428 0.92300004 3.2153186e-39
-0.074719049 -0.24525428 0.92300004 4.9670327e-39
-0.07296095 -0.24525428 0.92300004 1.2605265e-38
-0.071588568 -0.24658287 0.92800003 1.4356982e-38
-0.069820955 -0.24658287 0.92800003 1.5653139e-38
-0.068053335 -0.24658287 0.92800003 1.2702878e-38
-0.066428579 -0.24711432 0.93000007 9.7511792e-39
-0.064518094 -0.24658287 0.92800003 8.8292229e-39
-0.062750474 -0.24658287 0.92800003 8.8270495e-39
-0.060982861 -0.24658287 0.92800003 8.6426582e-39
-0.059023816 -0.24578573 0.92500007 8.7337847e-39
-0.057261907 -0.24578573 0.92500007 8.7337847e-39
-0.055380002 -0.24525428 0.92300004 7.4473044e-39
-0.053621907 -0.24525428 0.92300004 1.0120978e-38
-0.051863808 -0.24525428 0.92300004 8.0171634e-39
-0.050105717 -0.24525428 0.92300004 7.7405765e-39
-0.048347622 -0.24525428 0.92300004 7.4729748e-39
-0.046589527 -0.24525428 0.92300004 8.0261486e-39
-0.044928573 -0.24578573 0.92500007 8.8620819e-39
-0.043166671 -0.24578573 0.92500007 9.6918426e-39
-0.041404765 -0.24578573 0.92500007 8.5909223e-39
-0.039642859 -0.24578573 0.92500007 8.867505e-39
-0.037880953 -0.24578573 0.92500007 9.0515347e-39
-0.036119051 -0.24578573 0.92500007 8.4983693e-39
-0.034357145 -0.24578573 0.92500007 8.4043534e-39
-0.03259524 -0.24578573 0.92500007 6.8370277e-39
-0.030833337 -0.24578573 0.92500007 5.2700803e-39
-0.02907143 -0.24578573 0.92500007 7.3905798e-39
-0.027398096 -0.24658287 0.92800003 9.687905e-39
-0.025685715 -0.24711432 0.93000007 6.184471e-39
-0.023914289 -0.24711432 0.93000007 5.9974944e-39
-0.022214286 -0.24791144 0.93300003 6.6428638e-39
-0.020437144 -0.24791144 0.93300003 7.6533541e-39
-0.018700002 -0.24844287 0.93500006 7.8377454e-39
-0.016919049 -0.24844287 0.93500006 8.0210478e-39
-0.015138096 -0.24844287 0.93500006 8.2054391e-39
-0.013400001 -0.24924 0.93800002 7.8380957e-39
-0.011613334 -0.24924 0.93800002 7.6537044e-39
-0.0098266667 -0.24924 0.93800002 7.6529688e-39
-0.0080400007 -0.24924 0.93800002 7.7451644e-39
-0.0062533333 -0.24924 0.93800002 7.652966e-39
-0.0044666668 -0.24924 0.93800002 8.4827266e-39
-0.0026800002 -0.24924 0.93800002 9.4050683e-39
-0.00089523813 -0.24977143 0.94000006 1.0603611e-38
0.00089809526 -0.25056857 0.94300002 1.0790151e-38
0.0026942857 -0.25056857 0.94300002 1.060576e-38
0.0045047617 -0.25136572 0.94600004 1.0605775e-38
0.0063200006 -0.25189719 0.94800007 1.0421384e-38
0.0081514288 -0.25269428 0.95100003 9.3143566e-39
0.0099942861 -0.25349143 0.95400006 9.3143566e-39
0.011811429 -0.25349143 0.95400006 6.4586e-39
0.013657142 -0.25402287 0.95600003 1.5722317e-39
0.015478096 -0.25402287 0.95600003 3.7541487e-40
0.017299049 -0.25402287 0.95600003 2.0349362e-39
0.01912 -0.25402287 0.95600003 7.542503e-40
0.020831428 -0.25269428 0.95100003 1.3074241e-39
0.022642858 -0.25269428 0.95100003 7.8421132e-39
0.02453143 -0.25349143 0.95400006 1.0884569e-38
0.026265714 -0.25269428 0.95100003 1.3645088e-38
0.028077144 -0.25269428 0.95100003 1.253874e-38
-0.092500009 -0.24402381 0.92500007 1.475202e-38
-0.090738103 -0.24402381 0.92500007 2.4177219e-39
-0.088783816 -0.24349619 0.92300004 8.7511089e-42
-0.087025717 -0.24349619 0.92300004 4.7237771e-42
-0.085267626 -0.24349619 0.92300004 2.4940058e-39
-0.083509527 -0.24349619 0.92300004 4.3328821e-39
-0.081751429 -0.24349619 0.92300004 4.4250777e-39
-0.079993337 -0.24349619 0.92300004 4.5158258e-39
-0.078235239 -0.24349619 0.92300004 3.5938695e-39
-0.076477148 -0.24349619 0.92300004 4.3213732e-39
-0.074719049 -0.24349619 0.92300004 3.8603951e-39
-0.07296095 -0.24349619 0.92300004 7.0731745e-39
-0.071357146 -0.24402381 0.92500007 9.8390434e-39
-0.06959524 -0.24402381 0.92500007 1.0297819e-38
-0.068053335 -0.24481523 0.92800003 1.0666601e-38
-0.066285722 -0.24481523 0.92800003 1.0484769e-38
-0.064518094 -0.24481523 0.92800003 1.0576964e-38
-0.062750474 -0.24481523 0.92800003 9.6582549e-39
-0.060982861 -0.24481523 0.92800003 9.5660593e-39
-0.059023816 -0.24402381 0.92500007 9.6582395e-39
-0.057261907 -0.24402381 0.92500007 1.0027022e-38
-0.055500004 -0.24402381 0.92500007 8.2771253e-39
-0.053738099 -0.24402381 0.92500007 7.0785821e-39
-0.051976193 -0.24402381 0.92500007 4.8752631e-39
-0.050105717 -0.24349619 0.92300004 4.5986762e-39
-0.048347622 -0.24349619 0.92300004 3.4177642e-39
-0.046589527 -0.24349619 0.92300004 8.3041325e-39
-0.044928573 -0.24402381 0.92500007 1.014956e-38
-0.043166671 -0.24402381 0.92500007 1.1440299e-38
-0.041404765 -0.24402381 0.92500007 1.0521979e-38
-0.039642859 -0.24402381 0.92500007 1.0429785e-38
-0.037880953 -0.24402381 0.92500007 9.9706071e-39
-0.036119051 -0.24402381 0.92500007 7.2047592e-39
-0.034357145 -0.24402381 0.92500007 5.7321151e-39
-0.03259524 -0.24402381 0.92500007 6.4696801e-39
-0.030833337 -0.24402381 0.92500007 7.8486587e-39
-0.029165715 -0.24481523 0.92800003 9.0472019e-39
-0.027457144 -0.24534287 0.93000007 9.7815425e-39
-0.025685715 -0.24534287 0.93000007 6.6468911e-39
-0.023991428 -0.2461343 0.93300003 5.5386994e-39
-0.022214286 -0.2461343 0.93300003 5.9996776e-39
-0.020480953 -0.24666193 0.93500006 7.1923704e-39
-0.018700002 -0.24666193 0.93500006 7.4689572e-39
-0.016919049 -0.24666193 0.93500006 7.5611585e-39
-0.015186667 -0.24745335 0.93800002 7.8377454e-39
-0.013400001 -0.24745335 0.93800002 7.7459001e-39
-0.011613334 -0.24745335 0.93800002 7.8380957e-39
-0.0098266667 -0.24745335 0.93800002 7.7459001e-39
-0.0080400007 -0.24745335 0.93800002 7.8380957e-39
-0.0062533333 -0.24745335 0.93800002 7.7459001e-39
-0.0044666668 -0.24745335 0.93800002 7.4693132e-39
-0.0026800002 -0.24745335 0.93800002 7.4689629e-39
-0.00089523813 -0.24798095 0.94000006 7.7455497e-39
0.00089523813 -0.24798095 0.94000006 8.1161021e-39
0.0026857145 -0.24798095 0.94000006 9.4990366e-39
0.0045047617 -0.24956383 0.94600004 8.4874406e-39
0.0063200006 -0.25009143 0.94800007 7.0123105e-39
0.0081514288 -0.25088286 0.95100003 1.1339395e-38
0.0099942861 -0.25167429 0.95400006 2.2863809e-38
0.011811429 -0.25167429 0.95400006 2.2218808e-38
0.013657142 -0.25220191 0.95600003 1.3736811e-38
0.015478096 -0.25220191 0.95600003 1.0352303e-39
0.017299049 -0.25220191 0.95600003 1.9277663e-41
0.01912 -0.25220191 0.95600003 6.5633037e-40
0.020897144 -0.25167429 0.95400006 3.7974348e-40
0.022714287 -0.25167429 0.95400006 7.556572e-40
0.02453143 -0.25167429 0.95400006 7.2093513e-39
0.026265714 -0.25088286 0.95100003 1.2543795e-38
0.028077144 -0.25088286 0.95100003 1.24516e-38
0.029888572 -0.25088286 0.95100003 1.2634913e-38
0.031600002 -0.25009143 0.94800007 1.1805165e-38
0.033405717 -0.25009143 0.94800007 1.1896936e-38
-0.089264765 -0.24304762 0.92800003 3.9746472e-39
-0.087497145 -0.24304762 0.92800003 1.8522924e-40
-0.085452385 -0.24226192 0.92500007 1.8447506e-39
-0.083690479 -0.24226192 0.92500007 3.5956674e-39
-0.081751429 -0.24173811 0.92300004 4.3332324e-39
-0.079993337 -0.24173811 0.92300004 4.7002171e-39
-0.078235239 -0.24173811 0.92300004 4.5158258e-39
-0.076477148 -0.24173811 0.92300004 4.5136454e-39
-0.074719049 -0.24173811 0.92300004 2.6697328e-39
-0.07296095 -0.24173811 0.92300004 7.2607902e-39
-0.071357146 -0.24226192 0.92500007 9.3812896e-39
-0.06959524 -0.24226192 0.92500007 1.0021242e-38
-0.068053335 -0.24304762 0.92800003 1.0390024e-38
-0.066285722 -0.24304762 0.92800003 1.0210703e-38
-0.064518094 -0.24304762 0.92800003 1.0210703e-38
-0.062750474 -0.24304762 0.92800003 1.0026672e-38
-0.060982861 -0.24304762 0.92800003 9.7500848e-39
-0.05921524 -0.24304762 0.92800003 9.8401154e-39
-0.057261907 -0.24226192 0.92500007 1.0116702e-38
-0.055500004 -0.24226192 0.92500007 8.4600774e-39
-0.053738099 -0.24226192 0.92500007 7.1693386e-39
-0.051976193 -0.24226192 0.92500007 6.5300929e-39
-0.050214287 -0.24226192 0.92500007 6.1613104e-39
-0.048452385 -0.24226192 0.92500007 3.6835092e-39
-0.046690479 -0.24226192 0.92500007 8.1088994e-39
-0.044928573 -0.24226192 0.92500007 6.5553471e-39
-0.043166671 -0.24226192 0.92500007 9.6899985e-39
-0.041404765 -0.24226192 0.92500007 9.1429848e-39
-0.039642859 -0.24226192 0.92500007 8.8663979e-39
-0.037880953 -0.24226192 0.92500007 9.968798e-39
-0.036119051 -0.24226192 0.92500007 7.8482986e-39
-0.034468573 -0.24304762 0.92800003 5.4544436e-39
-0.032700956 -0.24304762 0.92800003 7.1139649e-39
-0.030933332 -0.24304762 0.92800003 7.9423061e-39
-0.029165715 -0.24304762 0.92800003 8.5876755e-39
-0.027457144 -0.24357145 0.93000007 9.4149306e-39
-0.025685715 -0.24357145 0.93000007 6.5568689e-39
-0.023991428 -0.24435715 0.93300003 5.2646461e-39
-0.022214286 -0.24435715 0.93300003 5.2646461e-39
-0.020480953 -0.24488097 0.93500006 7.0079791e-39
-0.018700002 -0.24488097 0.93500006 7.4689572e-39
-0.016919049 -0.24488097 0.93500006 7.2849317e-39
-0.015138096 -0.24488097 0.93500006 7.7459099e-39
-0.013357143 -0.24488097 0.93500006 7.6540646e-39
-0.011613334 -0.24566668 0.93800002 7.7462602e-39
-0.0098266667 -0.24566668 0.93800002 7.8380957e-39
-0.0080400007 -0.24566668 0.93800002 7.9302913e-39
-0.0062533333 -0.24566668 0.93800002 7.9302913e-39
-0.0044666668 -0.24566668 0.93800002 7.8380957e-39
-0.0026800002 -0.24566668 0.93800002 7.5615088e-39
-0.00089523813 -0.2461905 0.94000006 7.2849219e-39
0.00089523813 -0.2461905 0.94000006 7.377821e-39
0.0026857145 -0.2461905 0.94000006 7.2856254e-39
0.0045047617 -0.24776192 0.94600004 7.6583736e-39
0.0063200006 -0.24828573 0.94800007 8.9491124e-39
0.008125715 -0.24828573 0.94800007 1.4287185e-38
0.0099628577 -0.24907145 0.95100003 2.3230074e-38
0.011811429 -0.24985714 0.95400006 2.341769e-38
0.013585715 -0.24907145 0.95100003 2.1665973e-38
0.015397143 -0.24907145 0.95100003 1.3197363e-38
0.017262857 -0.24985714 0.95400006 7.481234e-39
0.01908 -0.24985714 0.95400006 1.035205e-39
0.020897144 -0.24985714 0.95400006 1.5651103e-41
0.022714287 -0.24985714 0.95400006 8.4855629e-40
0.02453143 -0.24985714 0.95400006 5.8271203e-39
0.026403811 -0.25038093 0.95600003 7.1157782e-39
0.028165715 -0.24985714 0.95400006 8.5909083e-39
0.029888572 -0.24907145 0.95100003 9.2358881e-39
0.031600002 -0.24828573 0.94800007 8.4983231e-39
0.033405717 -0.24828573 0.94800007 1.0243153e-38
-0.089264765 -0.24128 0.92800003 1.4476178e-38
-0.087497145 -0.24128 0.92800003 2.5099175e-39
-0.085452385 -0.24050002 0.92500007 9.1112426e-42
-0.083690479 -0.24050002 0.92500007 1.8804024e-40
-0.081928581 -0.24050002 0.92500007 2.492931e-39
-0.080166668 -0.24050002 0.92500007 4.2406865e-39
-0.078235239 -0.23998 0.92300004 4.3328821e-39
-0.076477148 -0.23998 0.92300004 4.5154503e-39
-0.074880958 -0.24050002 0.92500007 3.5012984e-39
-0.073119059 -0.24050002 0.92500007 7.265144e-39
-0.071357146 -0.24050002 0.92500007 9.5700347e-39
-0.069820955 -0.24128 0.92800003 1.0299987e-38
-0.068053335 -0.24128 0.92800003 1.0392182e-38
-0.066285722 -0.24128 0.92800003 1.0299308e-38
-0.064518094 -0.24128 0.92800003 1.0114917e-38
-0.062750474 -0.24128 0.92800003 1.0025233e-38
-0.061114289 -0.24180001 0.93000007 9.5642544e-39
-0.059342861 -0.24180001 0.93000007 9.6546549e-39
-0.057571433 -0.24180001 0.93000007 9.1936768e-39
-0.055679999 -0.24128 0.92800003 8.3664371e-39
-0.053912383 -0.24128 0.92800003 8.0898502e-39
-0.052257147 -0.24180001 0.93000007 6.4357659e-39
-0.050485715 -0.24180001 0.93000007 6.159179e-39
-0.048609525 -0.24128 0.92800003 3.3136575e-39
-0.046841905 -0.24128 0.92800003 2.4838968e-39
-0.045074288 -0.24128 0.92800003 9.6926413e-41
-0.043306667 -0.24128 0.92800003 3.1393822e-39
-0.041539047 -0.24128 0.92800003 4.1608195e-39
-0.03977143 -0.24128 0.92800003 6.9266884e-39
-0.038003813 -0.24128 0.92800003 7.8439559e-39
-0.036236189 -0.24128 0.92800003 7.1985865e-39
-0.034468573 -0.24128 0.92800003 7.0142079e-39
-0.032700956 -0.24128 0.92800003 9.4112942e-39
-0.030933332 -0.24128 0.92800003 9.4141921e-39
-0.029165715 -0.24128 0.92800003 9.7829747e-39
-0.027545715 -0.24258001 0.93300003 1.0059573e-38
-0.025768572 -0.24258001 0.93300003 8.0312703e-39
-0.023991428 -0.24258001 0.93300003 6.0911936e-39
-0.022214286 -0.24258001 0.93300003 5.4458242e-39
-0.020480953 -0.24310002 0.93500006 6.7317481e-39
-0.018700002 -0.24310002 0.93500006 7.5615088e-39
-0.016919049 -0.24310002 0.93500006 7.5611585e-39
-0.015138096 -0.24310002 0.93500006 7.7455497e-39
-0.013357143 -0.24310002 0.93500006 7.7459001e-39
-0.011613334 -0.24388 0.93800002 7.8380957e-39
-0.0098266667 -0.24388 0.93800002 7.7459001e-39
-0.0080400007 -0.24388 0.93800002 7.7459001e-39
-0.0062533333 -0.24388 0.93800002 8.2054391e-39
-0.0044666668 -0.24388 0.93800002 8.2054391e-39
-0.0026857145 -0.24440002 0.94000006 7.9299354e-39
-0.00089523813 -0.24440002 0.94000006 7.9299354e-39
0.00089523813 -0.24440002 0.94000006 7.8377454e-39
0.0026857145 -0.24440002 0.94000006 5.9938328e-39
0.0045047617 -0.24596 0.94600004 2.7813532e-39
0.0063066669 -0.24596 0.94600004 1.0894569e-38
0.008125715 -0.24648002 0.94800007 1.668536e-38
0.0099314293 -0.24648002 0.94800007 2.2862374e-38
0.011774287 -0.24726002 0.95100003 2.341769e-38
0.013585715 -0.24726002 0.95100003 2.341769e-38
0.015397143 -0.24726002 0.95100003 2.341769e-38
0.017208571 -0.24726002 0.95100003 2.341769e-38
0.01902 -0.24726002 0.95100003 1.8721167e-38
0.020831428 -0.24726002 0.95100003 6.3669551e-39
0.022642858 -0.24726002 0.95100003 1.1352451e-39
0.02453143 -0.24804002 0.95400006 4.0855053e-39
0.026348574 -0.24804002 0.95400006 5.730271e-39
0.028165715 -0.24804002 0.95400006 1.3970764e-39
0.029982859 -0.24804002 0.95400006 8.4967032e-40
0.0317 -0.24726002 0.95100003 3.8869217e-40
0.03351143 -0.24726002 0.95100003 8.479271e-40
-0.089264765 -0.23951238 0.92800003 2.1204995e-38
-0.087497145 -0.23951238 0.92800003 1.0706723e-38
-0.085729532 -0.23951238 0.92800003 3.4232685e-39
-0.083690479 -0.2387381 0.92500007 9.4465733e-41
-0.081928581 -0.2387381 0.92500007 1.7539871e-39
-0.080166668 -0.2387381 0.92500007 3.3190833e-39
-0.078404762 -0.2387381 0.92500007 4.148844e-39
-0.076642863 -0.2387381 0.92500007 4.5158258e-39
-0.074880958 -0.2387381 0.92500007 3.5938695e-39
-0.073119059 -0.2387381 0.92500007 6.9885473e-39
-0.071357146 -0.2387381 0.92500007 9.7544162e-39
-0.069820955 -0.23951238 0.92800003 1.0119195e-38
-0.068053335 -0.23951238 0.92800003 9.8426083e-39
-0.066285722 -0.23951238 0.92800003 1.0299659e-38
-0.064518094 -0.23951238 0.92800003 1.0207463e-38
-0.062750474 -0.23951238 0.92800003 1.0299298e-38
-0.061114289 -0.24002858 0.93000007 1.0391494e-38
-0.059342861 -0.24002858 0.93000007 9.3780681e-39
-0.057571433 -0.24002858 0.93000007 9.0092855e-39
-0.055800002 -0.24002858 0.93000007 8.4593516e-39
-0.054028574 -0.24002858 0.93000007 7.7217865e-39
-0.052425716 -0.24080285 0.93300003 6.3439066e-39
-0.050485715 -0.24002858 0.93000007 5.7907328e-39
-0.048714291 -0.24002858 0.93000007 3.3136575e-39
-0.047094285 -0.24080285 0.93300003 3.4058531e-39
-0.045171432 -0.24002858 0.93000007 1.8457329e-39
-0.043400005 -0.24002858 0.93000007 1.7535373e-39
-0.041628573 -0.24002858 0.93000007 4.3278963e-39
-0.03977143 -0.23951238 0.92800003 5.895222e-39
-0.038003813 -0.23951238 0.92800003 7.9253111e-39
-0.036236189 -0.23951238 0.92800003 7.8331155e-39
-0.034542862 -0.24002858 0.93000007 6.3662615e-39
-0.032700956 -0.23951238 0.92800003 8.7633479e-39
-0.030933332 -0.23951238 0.92800003 7.9397361e-39
-0.029228574 -0.24002858 0.93000007 9.2304749e-39
-0.027545715 -0.24080285 0.93300003 1.0152833e-38
-0.025768572 -0.24080285 0.93300003 8.4011164e-39
-0.023991428 -0.24080285 0.93300003 6.8298404e-39
-0.022214286 -0.24080285 0.93300003 5.2625147e-39
-0.020480953 -0.24131906 0.93500006 6.547717e-39
-0.018700002 -0.24131906 0.93500006 7.4696733e-39
-0.016919049 -0.24131906 0.93500006 7.5611585e-39
-0.015186667 -0.24209334 0.93800002 7.7455497e-39
-0.013400001 -0.24209334 0.93800002 7.8377454e-39
-0.011613334 -0.24209334 0.93800002 7.929941e-39
-0.0098266667 -0.24209334 0.93800002 7.7459001e-39
-0.0080400007 -0.24209334 0.93800002 7.8380957e-39
-0.0062533333 -0.24209334 0.93800002 7.9302913e-39
-0.0044666668 -0.24209334 0.93800002 7.9302913e-39
-0.0026857145 -0.24260955 0.94000006 7.9299354e-39
-0.00089523813 -0.24260955 0.94000006 8.022131e-39
0.00089523813 -0.24260955 0.94000006 8.1139763e-39
0.0026857145 -0.24260955 0.94000006 5.4403031e-39
0.0044904761 -0.24338381 0.94300002 5.6762817e-40
0.0063066669 -0.24415809 0.94600004 1.5134538e-38
0.0081085712 -0.24415809 0.94600004 2.0377793e-38
0.0099314293 -0.2446743 0.94800007 2.2682649e-38
0.011737144 -0.2446743 0.94800007 2.341769e-38
0.013542858 -0.2446743 0.94800007 2.341769e-38
0.015348572 -0.2446743 0.94800007 2.341769e-38
0.017208571 -0.24544857 0.95100003 2.3325494e-38
0.01902 -0.24544857 0.95100003 2.3325494e-38
0.020831428 -0.24544857 0.95100003 8.5741936e-39
0.022642858 -0.24544857 0.95100003 6.1837031e-39
0.02453143 -0.24622288 0.95400006 1.0332506e-38
0.026348574 -0.24622288 0.95400006 8.2999903e-39
0.028165715 -0.24622288 0.95400006 2.7682609e-39
0.029982859 -0.24622288 0.95400006 5.6411091e-40
0.0317 -0.24544857 0.95100003 4.7191528e-40
0.03351143 -0.24544857 0.95100003 7.510133e-40
-0.089745715 -0.23902571 0.93300003 2.341769e-38
-0.087685719 -0.23825715 0.93000007 2.0193046e-38
-0.085914291 -0.23825715 0.93000007 1.2540811e-38
-0.083961904 -0.23774476 0.92800003 3.8874219e-39
-0.082194284 -0.23774476 0.92800003 1.0163618e-41
-0.080426671 -0.23774476 0.92800003 1.1124838e-39
-0.07865905 -0.23774476 0.92800003 2.6798096e-39
-0.07689143 -0.23774476 0.92800003 4.4236302e-39
-0.075123817 -0.23774476 0.92800003 3.8704564e-39
-0.073356189 -0.23774476 0.92800003 6.5290335e-39
-0.071588568 -0.23774476 0.92800003 7.8197723e-39
-0.069820955 -0.23774476 0.92800003 9.8397469e-39
-0.068200007 -0.23825715 0.93000007 1.0208529e-38
-0.066428579 -0.23825715 0.93000007 1.0482621e-38
-0.064657152 -0.23825715 0.93000007 1.0390425e-38
-0.062885717 -0.23825715 0.93000007 1.0575885e-38
-0.061114289 -0.23825715 0.93000007 1.0760277e-38
-0.059342861 -0.23825715 0.93000007 1.0024156e-38
-0.057571433 -0.23825715 0.93000007 9.1943957e-39
-0.055800002 -0.23825715 0.93000007 9.1018637e-39
-0.054028574 -0.23825715 0.93000007 9.1018637e-39
-0.052425716 -0.23902571 0.93300003 8.2771253e-39
-0.05064857 -0.23902571 0.93300003 8.4615166e-39
-0.048871431 -0.23902571 0.93300003 7.3623367e-39
-0.047094285 -0.23902571 0.93300003 6.3481847e-39
-0.045171432 -0.23825715 0.93000007 6.3460772e-39
-0.043400005 -0.23825715 0.93000007 5.6085121e-39
-0.041628573 -0.23825715 0.93000007 5.4262565e-39
-0.03977143 -0.23774476 0.92800003 5.3340608e-39
-0.038003813 -0.23774476 0.92800003 4.4153415e-39
-0.036236189 -0.23774476 0.92800003 4.046559e-39
-0.034542862 -0.23825715 0.93000007 4.1434083e-39
-0.032771431 -0.23825715 0.93000007 5.1575603e-39
-0.031000003 -0.23825715 0.93000007 4.7956763e-39
-0.029228574 -0.23825715 0.93000007 9.0366753e-39
-0.027545715 -0.23902571 0.93300003 1.0423989e-38
-0.025768572 -0.23902571 0.93300003 1.0423989e-38
-0.023991428 -0.23902571 0.93300003 9.3155099e-39
-0.022214286 -0.23902571 0.93300003 6.2730541e-39
-0.020480953 -0.2395381 0.93500006 6.5477226e-39
-0.018700002 -0.2395381 0.93500006 7.3774833e-39
-0.016919049 -0.2395381 0.93500006 7.4682538e-39
-0.015186667 -0.24030668 0.93800002 7.6526451e-39
-0.013400001 -0.24030668 0.93800002 7.9295851e-39
-0.011613334 -0.24030668 0.93800002 7.8373894e-39
-0.0098266667 -0.24030668 0.93800002 7.7455441e-39
-0.0080400007 -0.24030668 0.93800002 7.7455441e-39
-0.0062533333 -0.24030668 0.93800002 7.8377398e-39
-0.0044666668 -0.24030668 0.93800002 7.8377398e-39
-0.0026857145 -0.24081907 0.94000006 7.7459001e-39
-0.00089523813 -0.24081907 0.94000006 7.9302913e-39
0.00089523813 -0.24081907 0.94000006 8.1139763e-39
0.0026857145 -0.24081907 0.94000006 5.3481074e-39
0.0044904761 -0.24158762 0.94300002 1.121909e-39
0.0062866667 -0.24158762 0.94300002 1.5780996e-38
0.0081085712 -0.2423562 0.94600004 2.1113912e-38
0.0099104764 -0.2423562 0.94600004 2.2957796e-38
0.011737144 -0.24286859 0.94800007 2.341769e-38
0.013542858 -0.24286859 0.94800007 2.341769e-38
0.015348572 -0.24286859 0.94800007 2.341769e-38
0.017154286 -0.24286859 0.94800007 2.341769e-38
0.018960001 -0.24286859 0.94800007 2.0377385e-38
0.020765714 -0.24286859 0.94800007 6.732432e-39
0.022642858 -0.24363716 0.95100003 1.7704795e-38
0.024454286 -0.24363716 0.95100003 2.2867033e-38
0.026348574 -0.24440572 0.95400006 2.3326213e-38
0.028224763 -0.24491809 0.95600003 1.4659824e-38
0.030045714 -0.24491809 0.95600003 4.5342851e-39
0.03186667 -0.24491809 0.95600003 1.8606119e-39
0.033687621 -0.24491809 0.95600003 8.504018e-40
0.035731431 -0.24645525 0.96200007 4.8161928e-40
0.037641905 -0.24696763 0.96400005 7.5637046e-40
-0.087968573 -0.23724857 0.93300003 2.3326213e-38
-0.085914291 -0.23648572 0.93000007 1.9269606e-38
-0.083961904 -0.23597716 0.92800003 1.0149923e-38
-0.082194284 -0.23597716 0.92800003 2.2210987e-39
-0.080426671 -0.23597716 0.92800003 2.8098697e-40
-0.07865905 -0.23597716 0.92800003 2.4014865e-39
-0.07689143 -0.23597716 0.92800003 4.0559043e-39
-0.075123817 -0.23597716 0.92800003 3.5949261e-39
-0.073356189 -0.23597716 0.92800003 5.9765786e-39
-0.071588568 -0.23597716 0.92800003 8.0048824e-39
-0.069971435 -0.23648572 0.93000007 9.6549955e-39
-0.068200007 -0.23648572 0.93000007 1.0853539e-38
-0.066428579 -0.23648572 0.93000007 1.085105e-38
-0.064657152 -0.23648572 0.93000007 1.0666659e-38
-0.062885717 -0.23648572 0.93000007 1.0667365e-38
-0.061114289 -0.23648572 0.93000007 1.0943952e-38
-0.059342861 -0.23648572 0.93000007 1.0577325e-38
-0.057571433 -0.23648572 0.93000007 9.470977e-39
-0.055800002 -0.23648572 0.93000007 9.8361721e-39
-0.054028574 -0.23648572 0.93000007 9.8361721e-39
-0.052425716 -0.23724857 0.93300003 9.2851466e-39
-0.05064857 -0.23724857 0.93300003 9.5617334e-39
-0.048871431 -0.23724857 0.93300003 9.1032706e-39
-0.047094285 -0.23724857 0.93300003 8.3657056e-39
-0.045317143 -0.23724857 0.93300003 7.9954994e-39
-0.043540001 -0.23724857 0.93300003 8.1798906e-39
-0.041762859 -0.23724857 0.93300003 7.6314056e-39
-0.039857145 -0.23648572 0.93000007 7.3548187e-39
-0.038085714 -0.23648572 0.93000007 6.1580706e-39
-0.036314286 -0.23648572 0.93000007 5.4205055e-39
-0.034654286 -0.23724857 0.93300003 6.7101275e-39
-0.032877143 -0.23724857 0.93300003 7.8164751e-39
-0.031100003 -0.23724857 0.93300003 6.4375217e-39
-0.029322859 -0.23724857 0.93300003 1.0309738e-38
-0.027604764 -0.23775716 0.93500006 8.2076756e-39
-0.025823811 -0.23775716 0.93500006 9.0374362e-39
-0.024042858 -0.23775716 0.93500006 9.1317955e-39
-0.022261906 -0.23775716 0.93500006 6.3659266e-39
-0.020480953 -0.23775716 0.93500006 7.0083448e-39
-0.018700002 -0.23775716 0.93500006 7.469323e-39
-0.016919049 -0.23775716 0.93500006 7.4689629e-39
-0.015186667 -0.23852 0.93800002 7.8377454e-39
-0.013400001 -0.23852 0.93800002 7.746263e-39
-0.011613334 -0.23852 0.93800002 7.746263e-39
-0.0098266667 -0.23852 0.93800002 7.7455441e-39
-0.0080400007 -0.23852 0.93800002 7.9299354e-39
-0.006266667 -0.23902857 0.94000006 7.9299354e-39
-0.0044761905 -0.23902857 0.94000006 7.9299354e-39
-0.0026857145 -0.23902857 0.94000006 8.022487e-39
-0.00089523813 -0.23902857 0.94000006 8.022487e-39
0.00089523813 -0.23902857 0.94000006 8.0221366e-39
0.0026857145 -0.23902857 0.94000006 4.7952896e-39
0.0044904761 -0.23979144 0.94300002 6.6127835e-40
0.0062866667 -0.23979144 0.94300002 1.5412578e-38
0.0081085712 -0.2405543 0.94600004 2.0931317e-38
0.0099104764 -0.2405543 0.94600004 2.2590813e-38
0.011712381 -0.2405543 0.94600004 2.304891e-38
0.013542858 -0.24106286 0.94800007 2.3417691e-38
0.015348572 -0.24106286 0.94800007 2.341769e-38
0.017154286 -0.24106286 0.94800007 1.8900104e-38
0.018960001 -0.24106286 0.94800007 9.3304197e-39
0.020765714 -0.24106286 0.94800007 1.228068e-38
0.022642858 -0.24182571 0.95100003 1.9917897e-38
0.024454286 -0.24182571 0.95100003 2.2499336e-38
0.026348574 -0.24258858 0.95400006 2.341769e-38
0.028224763 -0.24309716 0.95600003 2.2126951e-38
0.030140001 -0.24386001 0.95900005 1.4762906e-38
0.031966668 -0.24386001 0.95900005 1.0153125e-38
0.033793334 -0.24386001 0.95900005 1.2257046e-39
0.035731431 -0.24462289 0.96200007 2.6441101e-41
0.037563812 -0.24462289 0.96200007 2.2268244e-39
-0.085914291 -0.2347143 0.93000007 2.341769e-38
-0.084142864 -0.2347143 0.93000007 2.0099759e-38
-0.082194284 -0.23420954 0.92800003 8.6675004e-39
-0.080426671 -0.23420954 0.92800003 1.8528809e-40
-0.078828573 -0.2347143 0.93000007 1.3838313e-39
-0.077057146 -0.2347143 0.93000007 3.0417551e-39
-0.075285718 -0.2347143 0.93000007 3.4105377e-39
-0.07351429 -0.2347143 0.93000007 6.3457282e-39
-0.071742855 -0.2347143 0.93000007 8.3740321e-39
-0.069971435 -0.2347143 0.93000007 9.8397651e-39
-0.068200007 -0.2347143 0.93000007 1.1038308e-38
-0.066428579 -0.2347143 0.93000007 1.1220549e-38
-0.064657152 -0.2347143 0.93000007 1.0575179e-38
-0.062885717 -0.2347143 0.93000007 1.0666646e-38
-0.061114289 -0.2347143 0.93000007 1.0666646e-38
-0.059342861 -0.2347143 0.93000007 1.0574801e-38
-0.057571433 -0.2347143 0.93000007 1.0113823e-38
-0.055800002 -0.2347143 0.93000007 9.9276419e-39
-0.054028574 -0.2347143 0.93000007 9.8354463e-39
-0.052425716 -0.23547144 0.93300003 8.9156354e-39
-0.05064857 -0.23547144 0.93300003 8.9156354e-39
-0.048871431 -0.23547144 0.93300003 8.0873264e-39
-0.047094285 -0.23547144 0.93300003 8.2717177e-39
-0.045414288 -0.23597619 0.93500006 8.5490235e-39
-0.043633334 -0.23597619 0.93500006 9.1021972e-39
-0.041852385 -0.23597619 0.93500006 8.3675259e-39
-0.040071432 -0.23597619 0.93500006 7.9065477e-39
-0.03820857 -0.23547144 0.93300003 6.8020345e-39
-0.036431432 -0.23547144 0.93300003 5.8800782e-39
