# .PCD v0.7 - Point Cloud Data file format
VERSION 0.7
FIELDS x y z rgb
SIZE 4 4 4 4
TYPE F F F F
COUNT 1 1 1 1
WIDTH 979
HEIGHT 1
VIEWPOINT 0 0 0 1 0 0 0
POINTS 979
DATA ascii
0.006266667 -0.26051429 0.94000006 5.8304049e-39
0.009721905 -0.25718856 0.92800003 1.677682e-38
0.011452381 -0.25635716 0.92500007 1.5583662e-38
0.013142857 -0.25497141 0.92000002 9.9597288e-39
0.014895238 -0.25497141 0.92000002 4.9084486e-39
0.016611429 -0.25441715 0.91800004 9.2416432e-39
0.018300001 -0.25358573 0.91500002 1.0526642e-38
0.020042857 -0.25358573 0.91500002 1.0065671e-38
0.021738095 -0.25303143 0.91300005 1.0064954e-38
0.023348572 -0.25164574 0.90800005 9.4195941e-39
0.025078095 -0.25164574 0.90800005 7.5792969e-39
0.026807619 -0.25164574 0.90800005 8.5012392e-39
0.028537145 -0.25164574 0.90800005 9.697253e-39
0.030200001 -0.25109142 0.90600002 9.697253e-39
0.031925712 -0.25109142 0.90600002 9.4217465e-39
0.033540003 -0.25026 0.90300006 9.4217465e-39
0.035181906 -0.24970572 0.90100002 9.8802065e-39
0.036775239 -0.24887431 0.89800006 8.2207034e-39
0.038399998 -0.24832001 0.89600003 7.3916588e-39
0.040106665 -0.24832001 0.89600003 9.4199529e-39
0.041720003 -0.24776573 0.89400005 9.5146582e-39
0.043277144 -0.24693429 0.89100003 9.6068525e-39
0.04497429 -0.24693429 0.89100003 1.0709955e-38
0.046566669 -0.24638 0.88900006 9.2348427e-39
0.048260003 -0.24638 0.88900006 8.1288119e-39
0.049953338 -0.24638 0.88900006 6.0083124e-39
0.051646668 -0.24638 0.88900006 1.3120806e-39
0.053340003 -0.24638 0.88900006 2.0261374e-41
0.055033337 -0.24638 0.88900006 2.029771e-39
0.056726668 -0.24638 0.88900006 3.2283142e-39
0.058551431 -0.24693429 0.89100003 4.0555511e-39
0.060451429 -0.24776573 0.89400005 4.5165293e-39
0.061945714 -0.24693429 0.89100003 4.334289e-39
0.063642859 -0.24693429 0.89100003 4.1498978e-39
0.065340005 -0.24693429 0.89100003 4.0584056e-39
0.067037143 -0.24693429 0.89100003 3.7818187e-39
0.068734288 -0.24693429 0.89100003 1.7542898e-39
0.070431434 -0.24693429 0.89100003 1.201116e-39
-0.0045142858 -0.26092574 0.94800007 7.6574277e-39
-0.0027028571 -0.26037526 0.94600004 4.8105049e-39
-0.00089809526 -0.25954953 0.94300002 1.0304841e-39
0.00089809526 -0.25954953 0.94300002 4.4416551e-39
0.0026857145 -0.2587238 0.94000006 9.8811973e-39
0.0044428571 -0.25679713 0.93300003 1.5308806e-38
0.0062000002 -0.25597143 0.93000007 1.6230762e-38
0.0079714293 -0.25597143 0.93000007 1.4383694e-38
0.0096904775 -0.25459525 0.92500007 1.383052e-38
0.011427619 -0.25404477 0.92300004 1.2359272e-38
0.013142857 -0.25321904 0.92000002 5.3524038e-39
0.014895238 -0.25321904 0.92000002 1.037328e-39
0.016611429 -0.25266856 0.91800004 8.505174e-39
0.018360002 -0.25266856 0.91800004 1.1630103e-38
0.020042857 -0.25184286 0.91500002 1.0800355e-38
0.021666666 -0.25046667 0.91000003 1.025006e-38
0.023348572 -0.24991621 0.90800005 9.973477e-39
0.025078095 -0.24991621 0.90800005 8.683834e-39
0.026807619 -0.24991621 0.90800005 7.6696975e-39
0.028537145 -0.24991621 0.90800005 8.1310273e-39
0.030200001 -0.24936573 0.90600002 9.8827177e-39
0.031925712 -0.24936573 0.90600002 1.061776e-38
0.033540003 -0.24854001 0.90300006 9.9724008e-39
0.035181906 -0.24798954 0.90100002 1.0156431e-38
0.036775239 -0.24716382 0.89800006 9.3266824e-39
0.038399998 -0.24661332 0.89600003 8.7745933e-39
0.040106665 -0.24661332 0.89600003 9.051176e-39
0.041813336 -0.24661332 0.89600003 8.8657113e-39
0.043277144 -0.24523716 0.89100003 8.5891286e-39
0.04497429 -0.24523716 0.89100003 5.1797246e-39
0.046566669 -0.24468668 0.88900006 1.4248403e-41
0.048260003 -0.24468668 0.88900006 9.5473267e-41
0.049953338 -0.24468668 0.88900006 3.2776371e-42
0.051646668 -0.24468668 0.88900006 4.3748538e-42
0.053340003 -0.24468668 0.88900006 1.5717006e-39
0.055033337 -0.24468668 0.88900006 3.5023802e-39
0.056726668 -0.24468668 0.88900006 3.8711627e-39
0.061945714 -0.24523716 0.89100003 2.9499449e-39
0.063642859 -0.24523716 0.89100003 2.2123798e-39
0.065340005 -0.24523716 0.89100003 1.7538848e-39
-0.0063066669 -0.25857335 0.94600004 9.2330477e-39
-0.0045047617 -0.25857335 0.94600004 4.5310706e-39
-0.0026942857 -0.25775331 0.94300002 3.8921261e-39
-0.00089809526 -0.25775331 0.94300002 4.8140824e-39
0.00089333334 -0.25638667 0.93800002 9.4051229e-39
0.0026714287 -0.25556669 0.93500006 1.3738318e-38
0.004428572 -0.25420004 0.93000007 1.7053362e-38
0.0061866669 -0.25365332 0.92800003 1.6592384e-38
0.0079542855 -0.25365332 0.92800003 1.2914292e-38
0.0096904775 -0.25283334 0.92500007 1.1807945e-38
0.011427619 -0.25228667 0.92300004 9.2289755e-39
0.013142857 -0.25146666 0.92000002 5.1723678e-39
0.014862858 -0.25092 0.91800004 9.4076172e-40
0.016611429 -0.25092 0.91800004 8.3164121e-39
0.018300001 -0.25010002 0.91500002 1.0801073e-38
0.020042857 -0.25010002 0.91500002 1.0340101e-38
0.021666666 -0.24873334 0.91000003 9.6068525e-39
0.023348572 -0.24818668 0.90800005 9.3302698e-39
0.025078095 -0.24818668 0.90800005 9.3288348e-39
0.026807619 -0.24818668 0.90800005 8.3146983e-39
0.028537145 -0.24818668 0.90800005 7.6693247e-39
0.030200001 -0.24764 0.90600002 9.5132233e-39
0.031925712 -0.24764 0.90600002 1.0525566e-38
0.033465713 -0.24627334 0.90100002 1.0064595e-38
0.035181906 -0.24627334 0.90100002 9.9731182e-39
0.036775239 -0.24545334 0.89800006 9.4199529e-39
0.038485717 -0.24545334 0.89800006 9.0515347e-39
0.040106665 -0.24490668 0.89600003 7.6686185e-39
0.041813336 -0.24490668 0.89600003 9.0461201e-39
0.043277144 -0.24354 0.89100003 7.2944031e-39
0.04497429 -0.24354 0.89100003 3.6087247e-39
0.046671428 -0.24354 0.89100003 3.3715241e-42
0.048260003 -0.24299335 0.88900006 9.2198432e-41
0.049953338 -0.24299335 0.88900006 1.4751329e-39
0.051646668 -0.24299335 0.88900006 2.853436e-39
0.053640001 -0.24436 0.89400005 3.4988054e-39
0.055342861 -0.24436 0.89400005 3.3179889e-39
-0.0081085712 -0.25677145 0.94600004 6.0962411e-39
-0.0062866667 -0.25595716 0.94300002 7.8483238e-39
-0.0044904761 -0.25595716 0.94300002 1.0153202e-38
-0.0026942857 -0.25595716 0.94300002 1.4480845e-38
-0.00089523813 -0.25514287 0.94000006 1.604817e-38
0.00089333334 -0.25460002 0.93800002 1.5765905e-38
0.0026657144 -0.25324285 0.93300003 1.4659558e-38
0.0044190479 -0.25188571 0.92800003 1.2078077e-38
0.0061866669 -0.25188571 0.92800003 9.3122084e-39
0.0079285717 -0.25107145 0.92500007 7.3810832e-39
0.0096904775 -0.25107145 0.92500007 7.5654745e-39
0.011390476 -0.2497143 0.92000002 7.5647794e-39
0.013142857 -0.2497143 0.92000002 4.9833018e-39
0.014862858 -0.24917144 0.91800004 9.4151282e-40
0.016611429 -0.24917144 0.91800004 5.3669031e-39
0.018300001 -0.24835713 0.91500002 8.7745835e-39
0.020042857 -0.24835713 0.91500002 1.0249701e-38
0.021666666 -0.24700001 0.91000003 1.0066747e-38
0.023400001 -0.24700001 0.91000003 9.6057763e-39
0.025078095 -0.24645717 0.90800005 9.6050588e-39
0.026807619 -0.24645717 0.90800005 8.9596992e-39
0.028537145 -0.24645717 0.90800005 7.6700478e-39
0.030200001 -0.24591428 0.90600002 8.7763869e-39
0.031820003 -0.24510001 0.90300006 1.0432654e-38
0.033465713 -0.24455714 0.90100002 1.0524849e-38
0.035181906 -0.24455714 0.90100002 1.0709596e-38
0.036775239 -0.24374288 0.89800006 1.0617402e-38
0.038485717 -0.24374288 0.89800006 1.1534322e-38
0.040196192 -0.24374288 0.89800006 7.4777308e-39
0.04190667 -0.24374288 0.89800006 1.0298072e-39
0.043277144 -0.24184287 0.89100003 5.211429e-42
0.04497429 -0.24184287 0.89100003 7.2166871e-43
0.047038097 -0.24374288 0.89800006 1.8547306e-40
0.048748575 -0.24374288 0.89800006 1.1982055e-39
0.050234288 -0.24265715 0.89400005 2.6733356e-39
0.051937148 -0.24265715 0.89400005 3.3140625e-39
0.053640001 -0.24265715 0.89400005 3.4984537e-39
0.055342861 -0.24265715 0.89400005 2.8559514e-39
-0.0099104764 -0.25496954 0.94600004 1.0348267e-39
-0.0081085712 -0.25496954 0.94600004 3.8928912e-39
-0.0062866667 -0.25416097 0.94300002 8.5833399e-39
-0.0044904761 -0.25416097 0.94300002 1.31931e-38
-0.0026857145 -0.2533524 0.94000006 1.6043894e-38
-0.00089333334 -0.25281334 0.93800002 1.6228285e-38
0.00088857143 -0.25146571 0.93300003 1.5950631e-38
0.0026571429 -0.25065717 0.93000007 1.3276958e-38
0.0044190479 -0.25011811 0.92800003 9.9622189e-39
0.0061666667 -0.24930954 0.92500007 6.9197632e-39
0.0079285717 -0.24930954 0.92500007 7.8377454e-39
0.0096904775 -0.24930954 0.92500007 9.0362886e-39
0.011390476 -0.24796192 0.92000002 8.7597087e-39
0.013142857 -0.24796192 0.92000002 5.2562747e-39
0.014862858 -0.24742286 0.91800004 9.3969814e-40
0.016611429 -0.24742286 0.91800004 4.9963059e-39
0.018360002 -0.24742286 0.91800004 6.5636932e-39
0.020042857 -0.24661429 0.91500002 9.7905234e-39
0.021738095 -0.24607526 0.91300005 1.0434448e-38
0.023400001 -0.24526666 0.91000003 9.7890885e-39
0.025133334 -0.24526666 0.91000003 9.4217465e-39
0.026807619 -0.24472764 0.90800005 9.3295523e-39
0.028537145 -0.24472764 0.90800005 8.3161333e-39
0.030200001 -0.24418858 0.90600002 8.5005217e-39
0.031820003 -0.24338001 0.90300006 9.0515347e-39
0.033540003 -0.24338001 0.90300006 9.973477e-39
0.035181906 -0.24284095 0.90100002 1.0893984e-38
0.036898095 -0.24284095 0.90100002 9.6032623e-39
0.038614288 -0.24284095 0.90100002 1.0794939e-38
0.040196192 -0.24203239 0.89800006 6.3695489e-39
0.04190667 -0.24203239 0.89800006 3.9648591e-39
0.043617148 -0.24203239 0.89800006 1.6599684e-39
0.045327619 -0.24203239 0.89800006 1.8378268e-39
0.047038097 -0.24203239 0.89800006 1.8378268e-39
0.048748575 -0.24203239 0.89800006 2.2069722e-39
0.050627619 -0.24284095 0.90100002 3.0367329e-39
0.052053336 -0.24149334 0.89600003 2.5782729e-39
0.05376 -0.24149334 0.89600003 2.5782729e-39
0.055466667 -0.24149334 0.89600003 2.3027804e-39
-0.0099104764 -0.25316763 0.94600004 9.2271706e-39
-0.0081085712 -0.25316763 0.94600004 1.4205735e-38
-0.0062866667 -0.25236475 0.94300002 1.5859515e-38
-0.0044761905 -0.25156191 0.94000006 1.595171e-38
-0.0026800002 -0.25102666 0.93800002 1.4569482e-38
-0.00089333334 -0.25102666 0.93800002 1.1619222e-38
0.00088857143 -0.24968857 0.93300003 8.3934989e-39
0.0026571429 -0.24888572 0.93000007 7.4715426e-39
0.0044190479 -0.24835047 0.92800003 7.7480609e-39
0.0061666667 -0.24754763 0.92500007 8.209039e-39
0.0079285717 -0.24754763 0.92500007 8.8519043e-39
0.0096904775 -0.24754763 0.92500007 9.4972737e-39
0.011427619 -0.24701239 0.92300004 8.0253764e-39
0.013142857 -0.24620955 0.92000002 3.3233993e-39
0.014895238 -0.24620955 0.92000002 8.4717601e-40
0.016611429 -0.2456743 0.91800004 4.1662187e-39
0.018360002 -0.2456743 0.91800004 5.4591379e-39
0.020042857 -0.24487145 0.91500002 8.5937893e-39
0.021785714 -0.24487145 0.91500002 1.0893267e-38
0.023477143 -0.2443362 0.91300005 1.0340101e-38
0.025133334 -0.24353334 0.91000003 9.697253e-39
0.026807619 -0.24299811 0.90800005 9.6050588e-39
0.028537145 -0.24299811 0.90800005 9.8802065e-39
0.030200001 -0.24246286 0.90600002 8.5894859e-39
0.031925712 -0.24246286 0.90600002 8.7731485e-39
0.033651426 -0.24246286 0.90600002 9.7872949e-39
0.035181906 -0.24112476 0.90100002 9.8733906e-39
0.036898095 -0.24112476 0.90100002 4.6182467e-39
0.038614288 -0.24112476 0.90100002 2.7688649e-39
0.040330477 -0.24112476 0.90100002 2.2156911e-39
0.04204667 -0.24112476 0.90100002 5.7939446e-39
0.043762855 -0.24112476 0.90100002 5.6095533e-39
0.045479048 -0.24112476 0.90100002 5.4219839e-39
0.047195237 -0.24112476 0.90100002 5.0532014e-39
0.04891143 -0.24112476 0.90100002 5.975124e-39
0.050627619 -0.24112476 0.90100002 8.3722104e-39
0.052343812 -0.24112476 0.90100002 7.453103e-39
0.053880006 -0.24032192 0.89800006 7.1765161e-39
0.055590477 -0.24032192 0.89800006 6.7191477e-39
-0.009879048 -0.25056857 0.94300002 1.4560147e-38
-0.0080828574 -0.25056857 0.94300002 1.7418211e-38
-0.006266667 -0.24977143 0.94000006 1.678038e-38
-0.0044761905 -0.24977143 0.94000006 1.5581836e-38
-0.0026800002 -0.24924 0.93800002 1.1716813e-38
-0.00088857143 -0.24791144 0.93300003 8.5821614e-39
0.00088571431 -0.24711432 0.93000007 7.5658514e-39
0.0026514288 -0.24658287 0.92800003 7.4736558e-39
0.0044190479 -0.24658287 0.92800003 8.667506e-39
0.0061666667 -0.24578573 0.92500007 8.9440929e-39
0.0079285717 -0.24578573 0.92500007 9.1284842e-39
0.0096904775 -0.24578573 0.92500007 9.4972667e-39
0.011427619 -0.24525428 0.92300004 8.2987305e-39
0.013142857 -0.24445714 0.92000002 3.7811447e-39
0.014895238 -0.24445714 0.92000002 6.6097847e-40
0.016611429 -0.24392572 0.91800004 5.8239337e-39
0.018360002 -0.24392572 0.91800004 6.3785957e-39
0.020042857 -0.24312857 0.91500002 8.8678637e-39
0.021785714 -0.24312857 0.91500002 9.4206703e-39
0.023477143 -0.24259716 0.91300005 9.7894472e-39
0.025133334 -0.24180001 0.91000003 9.697253e-39
0.026866667 -0.24180001 0.91000003 9.6050588e-39
0.028537145 -0.24126859 0.90800005 1.0339743e-38
0.030200001 -0.24073714 0.90600002 9.0490222e-39
0.031925712 -0.24073714 0.90600002 9.3241419e-39
0.033651426 -0.24073714 0.90600002 8.1255987e-39
0.035377141 -0.24073714 0.90600002 8.2091357e-39
0.036898095 -0.23940858 0.90100002 3.3227673e-39
0.038614288 -0.23940858 0.90100002 6.7977185e-39
0.040330477 -0.23940858 0.90100002 8.1806529e-39
0.04204667 -0.23940858 0.90100002 8.27674e-39
0.043762855 -0.23940858 0.90100002 6.8016099e-39
0.045479048 -0.23940858 0.90100002 6.8905937e-39
0.047195237 -0.23940858 0.90100002 6.7062025e-39
0.04891143 -0.23940858 0.90100002 7.6263483e-39
0.050627619 -0.23940858 0.90100002 1.011563e-38
0.052343812 -0.23940858 0.90100002 9.3816428e-39
0.053880006 -0.23861144 0.89800006 9.2894471e-39
0.055590477 -0.23861144 0.89800006 8.0026768e-39
0.057300955 -0.23861144 0.89800006 8.0948724e-39
0.068580002 -0.23622002 0.88900006 3.1343011e-39
0.070115238 -0.23568858 0.88700002 2.8577142e-39
0.071804762 -0.23568858 0.88700002 2.3981402e-39
0.073494285 -0.23568858 0.88700002 2.4903358e-39
-0.011675238 -0.24877238 0.94300002 1.6226502e-38
-0.0098476186 -0.24798095 0.94000006 1.6408726e-38
-0.0080571435 -0.24798095 0.94000006 1.4196031e-38
-0.0062533333 -0.24745335 0.93800002 1.0971733e-38
-0.0044666668 -0.24745335 0.93800002 8.5746462e-39
-0.0026714287 -0.24666193 0.93500006 7.3803742e-39
-0.00088857143 -0.2461343 0.93300003 7.4725698e-39
0.00088571431 -0.24534287 0.93000007 8.3005284e-39
0.0026514288 -0.24481523 0.92800003 8.6693109e-39
0.0044190479 -0.24481523 0.92800003 9.1288443e-39
0.0061666667 -0.24402381 0.92500007 9.0366487e-39
0.0079285717 -0.24402381 0.92500007 9.0370046e-39
0.0096904775 -0.24402381 0.92500007 9.3135915e-39
0.011427619 -0.24349619 0.92300004 7.5643955e-39
0.013185714 -0.24349619 0.92300004 2.4936358e-39
0.01494381 -0.24349619 0.92300004 7.5390418e-40
0.016611429 -0.24217714 0.91800004 7.1154026e-39
0.018360002 -0.24217714 0.91800004 8.3118285e-39
0.020042857 -0.24138571 0.91500002 8.4040227e-39
0.021785714 -0.24138571 0.91500002 9.2362623e-39
0.023477143 -0.24085811 0.91300005 1.0434805e-38
0.025133334 -0.24006668 0.91000003 1.080179e-38
0.026866667 -0.24006668 0.91000003 1.0986179e-38
0.028537145 -0.23953907 0.90800005 1.1997086e-38
0.030266669 -0.23953907 0.90800005 8.9546461e-39
0.031996191 -0.23953907 0.90800005 6.0040426e-39
0.033651426 -0.23901144 0.90600002 1.0352233e-40
0.035377141 -0.23901144 0.90600002 2.2072875e-39
0.037102856 -0.23901144 0.90600002 4.7887651e-39
0.038700003 -0.23822001 0.90300006 7.9065225e-39
0.04042 -0.23822001 0.90300006 9.289457e-39
0.04214 -0.23822001 0.90300006 9.3834154e-39
0.04386 -0.23822001 0.90300006 8.738046e-39
0.045479048 -0.23769239 0.90100002 9.1025504e-39
0.047195237 -0.23769239 0.90100002 9.0103547e-39
0.04891143 -0.23769239 0.90100002 9.0092757e-39
0.050740004 -0.23822001 0.90300006 9.3780583e-39
0.052460004 -0.23822001 0.90300006 1.0115592e-38
0.054060001 -0.23769239 0.90100002 1.0760962e-38
0.055590477 -0.23690097 0.89800006 9.293354e-39
0.057300955 -0.23690097 0.89800006 7.4494414e-39
0.068425715 -0.23399904 0.88700002 3.5949261e-39
0.070115238 -0.23399904 0.88700002 3.0417523e-39
0.071804762 -0.23399904 0.88700002 2.8552101e-39
0.073494285 -0.23399904 0.88700002 2.6708188e-39
0.075353332 -0.23452668 0.88900006 1.3825841e-39
-0.013514286 -0.24776192 0.94600004 1.7975323e-38
-0.011675238 -0.2469762 0.94300002 1.677678e-38
-0.0098476186 -0.2461905 0.94000006 1.5764791e-38
-0.0080571435 -0.2461905 0.94000006 1.2906727e-38
-0.0062533333 -0.24566668 0.93800002 9.5930763e-39
-0.0044666668 -0.24566668 0.93800002 7.6569681e-39
-0.0026714287 -0.24488097 0.93500006 8.0221464e-39
-0.00088857143 -0.24435715 0.93300003 8.7597115e-39
0.00088571431 -0.24357145 0.93000007 9.1281283e-39
0.0026514288 -0.24304762 0.92800003 8.943737e-39
0.0044190479 -0.24304762 0.92800003 9.0359326e-39
0.0061666667 -0.24226192 0.92500007 9.1281283e-39
0.0079285717 -0.24226192 0.92500007 9.2206798e-39
0.0096904775 -0.24226192 0.92500007 9.3128755e-39
0.011427619 -0.24173811 0.92300004 6.0917891e-39
0.013142857 -0.24095237 0.92000002 2.4039639e-39
0.014895238 -0.24095237 0.92000002 7.5501261e-40
0.016647618 -0.24095237 0.92000002 7.393098e-39
0.018360002 -0.24042858 0.91800004 9.1408591e-39
0.020042857 -0.23964286 0.91500002 8.5876937e-39
0.021785714 -0.23964286 0.91500002 7.5782053e-39
0.023477143 -0.23911905 0.91300005 9.329911e-39
0.025133334 -0.23833333 0.91000003 1.0342254e-38
0.026866667 -0.23833333 0.91000003 9.7890885e-39
0.0286 -0.23833333 0.91000003 9.8787576e-39
0.030266669 -0.23780954 0.90800005 6.9284975e-39
0.031996191 -0.23780954 0.90800005 4.2540619e-39
0.033725716 -0.23780954 0.90800005 7.5062794e-40
0.035455238 -0.23780954 0.90800005 6.0640294e-39
0.037184764 -0.23780954 0.90800005 7.5391595e-39
0.03882857 -0.23728572 0.90600002 9.3791373e-39
0.040554285 -0.23728572 0.90600002 1.0116702e-38
0.04228 -0.23728572 0.90600002 1.0208157e-38
0.044005714 -0.23728572 0.90600002 1.0392548e-38
0.045731429 -0.23728572 0.90600002 1.0204579e-38
0.047195237 -0.23597619 0.90100002 1.0112383e-38
0.04891143 -0.23597619 0.90100002 9.4659351e-39
0.050627619 -0.23597619 0.90100002 1.0111304e-38
0.052343812 -0.23597619 0.90100002 1.0204955e-38
0.054060001 -0.23597619 0.90100002 1.1219107e-38
0.055590477 -0.23519048 0.89800006 9.8444188e-39
0.057300955 -0.23519048 0.89800006 7.2629412e-39
0.067037143 -0.23335715 0.89100003 3.7793174e-39
0.068425715 -0.23230952 0.88700002 4.0548253e-39
0.070115238 -0.23230952 0.88700002 3.6860427e-39
0.071804762 -0.23230952 0.88700002 4.3281597e-39
0.073494285 -0.23230952 0.88700002 4.512551e-39
0.075353332 -0.23283336 0.88900006 3.7764237e-39
-0.013514286 -0.24596 0.94600004 1.3552832e-38
-0.011675238 -0.24518 0.94300002 1.0510376e-38
-0.0098476186 -0.24440002 0.94000006 8.6678662e-39
-0.0080571435 -0.24440002 0.94000006 7.9303011e-39
-0.0062533333 -0.24388 0.93800002 8.3005312e-39
-0.0044666668 -0.24388 0.93800002 8.7615093e-39
-0.0026714287 -0.24310002 0.93500006 9.0362956e-39
-0.00089047622 -0.24310002 0.93500006 9.1284912e-39
0.00088571431 -0.24180001 0.93000007 9.2206798e-39
0.0026514288 -0.24128 0.92800003 9.1284842e-39
0.0044190479 -0.24128 0.92800003 9.0366515e-39
0.0061666667 -0.24050002 0.92500007 9.0366515e-39
0.0079285717 -0.24050002 0.92500007 9.4047152e-39
0.0096904775 -0.24050002 0.92500007 8.7593457e-39
0.011427619 -0.23998 0.92300004 5.1709118e-39
0.013142857 -0.2392 0.92000002 3.0504124e-39
0.014895238 -0.2392 0.92000002 2.6003727e-39
0.016647618 -0.2392 0.92000002 8.7774631e-39
0.018360002 -0.23868001 0.91800004 1.1072992e-38
0.020108571 -0.23868001 0.91800004 9.7822684e-39
0.021785714 -0.2379 0.91500002 8.4940407e-39
0.02352857 -0.2379 0.91500002 8.8628232e-39
0.025216192 -0.23738 0.91300005 8.3075237e-39
0.026955239 -0.23738 0.91300005 4.5275057e-39
0.028694287 -0.23738 0.91300005 4.6515542e-40
0.030433334 -0.23738 0.91300005 2.0164685e-42
0.032066669 -0.23660001 0.91000003 4.656725e-40
0.033800002 -0.23660001 0.91000003 2.586172e-39
0.035533335 -0.23660001 0.91000003 5.9797806e-39
0.037184764 -0.23608002 0.90800005 5.610998e-39
0.038914286 -0.23608002 0.90800005 7.0757137e-39
0.040554285 -0.23556 0.90600002 7.6288874e-39
0.04228 -0.23556 0.90600002 8.7309008e-39
0.04386 -0.23478001 0.90300006 9.6528571e-39
0.04558 -0.23478001 0.90300006 9.7418031e-39
0.047300003 -0.23478001 0.90300006 9.8339987e-39
0.04891143 -0.23426001 0.90100002 1.0020188e-38
0.050627619 -0.23426001 0.90100002 1.0296775e-38
0.052343812 -0.23426001 0.90100002 1.038864e-38
0.053880006 -0.23348002 0.89800006 1.0941813e-38
0.055590477 -0.23348002 0.89800006 9.1090188e-39
0.057173334 -0.23296 0.89600003 5.4211936e-39
0.058880001 -0.23296 0.89600003 3.6802848e-39
0.060586669 -0.23296 0.89600003 4.6022411e-39
0.067037143 -0.23166001 0.89100003 3.5027305e-39
0.068580002 -0.23114002 0.88900006 3.8693648e-39
0.070273332 -0.23114002 0.88900006 4.330343e-39
0.07196667 -0.23114002 0.88900006 4.8827783e-39
0.073660001 -0.23114002 0.88900006 4.6061914e-39
0.075522862 -0.23166001 0.89100003 3.9633331e-39
0.07722 -0.23166001 0.89100003 6.9135932e-39
0.079360001 -0.23296 0.89600003 8.2958467e-39
0.081066668 -0.23296 0.89600003 1.1891476e-38
-0.015316191 -0.24415809 0.94600004 1.3738655e-38
-0.013471429 -0.24338381 0.94300002 1.0150213e-38
-0.011675238 -0.24338381 0.94300002 6.646779e-39
-0.0098476186 -0.24260955 0.94000006 7.5615214e-39
-0.0080571435 -0.24260955 0.94000006 8.2068908e-39
-0.0062533333 -0.24209334 0.93800002 8.4849225e-39
-0.0044666668 -0.24209334 0.93800002 8.9459006e-39
-0.0026714287 -0.24131906 0.93500006 9.3128853e-39
-0.00088857143 -0.24080285 0.93300003 9.2206896e-39
0.00088571431 -0.24002858 0.93000007 9.2206798e-39
0.0026514288 -0.23951238 0.92800003 9.3128755e-39
0.0044190479 -0.23951238 0.92800003 9.2210428e-39
0.0061866669 -0.23951238 0.92800003 9.4976296e-39
0.0079285717 -0.2387381 0.92500007 1.0141554e-38
0.0096904775 -0.2387381 0.92500007 8.1132505e-39
0.011427619 -0.23822191 0.92300004 4.4336971e-39
0.013114286 -0.23693144 0.91800004 4.5258928e-39
0.014862858 -0.23693144 0.91800004 4.531802e-39
0.016647618 -0.23744762 0.92000002 8.8649938e-39
0.0184 -0.23744762 0.92000002 1.0245735e-38
0.020108571 -0.23693144 0.91800004 8.4018227e-39
0.021785714 -0.23615715 0.91500002 5.7302836e-39
0.02352857 -0.23615715 0.91500002 6.375653e-39
0.025271429 -0.23615715 0.91500002 8.668316e-39
0.027014285 -0.23615715 0.91500002 3.5975564e-39
0.028757144 -0.23615715 0.91500002 1.3776586e-39
0.0305 -0.23615715 0.91500002 1.9308323e-39
0.032172382 -0.23564097 0.91300005 3.4058657e-39
0.033911429 -0.23564097 0.91300005 4.5122133e-39
0.035650477 -0.23564097 0.91300005 4.5125762e-39
0.037266668 -0.23486666 0.91000003 3.4062287e-39
0.038914286 -0.23435049 0.90800005 4.9645594e-39
0.040554285 -0.23383428 0.90600002 5.7943201e-39
0.04228 -0.23383428 0.90600002 7.9936861e-39
0.04386 -0.23306 0.90300006 9.1000336e-39
0.045479048 -0.23254381 0.90100002 9.6496075e-39
0.047195237 -0.23254381 0.90100002 1.0663759e-38
0.04891143 -0.23254381 0.90100002 1.0204949e-38
0.05045905 -0.23176953 0.89800006 1.0112753e-38
0.052169528 -0.23176953 0.89800006 1.0478677e-38
0.053880006 -0.23176953 0.89800006 1.1492829e-38
0.055590477 -0.23176953 0.89800006 8.7409551e-39
0.057173334 -0.23125334 0.89600003 4.2244454e-39
0.058880001 -0.23125334 0.89600003 2.4864276e-39
0.060451429 -0.23073715 0.89400005 3.9615576e-39
0.062154286 -0.23073715 0.89400005 3.7796677e-39
0.063857146 -0.23073715 0.89400005 3.5030808e-39
0.065340005 -0.22996287 0.89100003 3.8700683e-39
0.067037143 -0.22996287 0.89100003 3.8700683e-39
0.068580002 -0.22944668 0.88900006 3.8700683e-39
0.070273332 -0.22944668 0.88900006 4.6076333e-39
0.07196667 -0.22944668 0.88900006 4.5158034e-39
0.073660001 -0.22944668 0.88900006 3.5938471e-39
0.075522862 -0.22996287 0.89100003 4.23992e-39
0.07722 -0.22996287 0.89100003 9.0340927e-39
0.079360001 -0.23125334 0.89600003 9.9571561e-39
0.081066668 -0.23125334 0.89600003 1.1616677e-38
-0.017118096 -0.2423562 0.94600004 8.117268e-39
-0.015316191 -0.2423562 0.94600004 7.1953117e-39
-0.013471429 -0.24158762 0.94300002 7.5643983e-39
-0.011675238 -0.24158762 0.94300002 8.1175721e-39
-0.0098476186 -0.24081907 0.94000006 8.6693137e-39
-0.0080571435 -0.24081907 0.94000006 8.853705e-39
-0.0062533333 -0.24030668 0.93800002 9.2206868e-39
-0.0044666668 -0.24030668 0.93800002 9.2206868e-39
-0.0026714287 -0.2395381 0.93500006 9.2199848e-39
-0.00088857143 -0.23902571 0.93300003 9.2199848e-39
0.00088571431 -0.23825715 0.93000007 9.4961905e-39
0.0026514288 -0.23774476 0.92800003 9.5883861e-39
0.0044190479 -0.23774476 0.92800003 9.497617e-39
0.0061866669 -0.23774476 0.92800003 9.7742039e-39
0.0079285717 -0.23697621 0.92500007 9.5894567e-39
0.0096904775 -0.23697621 0.92500007 7.284566e-39
0.011427619 -0.23646381 0.92300004 4.8943095e-39
0.013114286 -0.23518287 0.91800004 6.3694396e-39
0.014862858 -0.23518287 0.91800004 7.7510709e-39
0.016647618 -0.23569524 0.92000002 7.474484e-39
0.0184 -0.23569524 0.92000002 4.1529526e-39
0.020152381 -0.23569524 0.92000002 1.4792793e-39
0.021785714 -0.23441429 0.91500002 1.8425085e-39
0.02352857 -0.23441429 0.91500002 2.7644648e-39
0.025271429 -0.23441429 0.91500002 3.8657551e-39
0.027014285 -0.23441429 0.91500002 4.2345376e-39
0.028757144 -0.23441429 0.91500002 4.7830675e-39
0.0305 -0.23441429 0.91500002 5.0596544e-39
0.032242857 -0.23441429 0.91500002 4.9692258e-39
0.033985715 -0.23441429 0.91500002 5.2458126e-39
0.035650477 -0.23390192 0.91300005 5.8868815e-39
0.037389524 -0.23390192 0.91300005 6.0712727e-39
0.039128575 -0.23390192 0.91300005 7.0789577e-39
0.040867623 -0.23390192 0.91300005 7.4477402e-39
0.04228 -0.23210858 0.90600002 8.5472382e-39
0.04386 -0.23134001 0.90300006 9.0082163e-39
0.045479048 -0.23082761 0.90100002 9.8325792e-39
0.047195237 -0.23082761 0.90100002 1.0385753e-38
0.04891143 -0.23082761 0.90100002 1.0294629e-38
0.05045905 -0.23005906 0.89800006 1.0386825e-38
0.052169528 -0.23005906 0.89800006 1.0480816e-38
0.05376 -0.22954667 0.89600003 1.0941794e-38
0.055466667 -0.22954667 0.89600003 8.2810433e-39
0.057173334 -0.22954667 0.89600003 4.5010225e-39
0.058748577 -0.22903429 0.89400005 3.2240248e-39
0.060451429 -0.22903429 0.89400005 4.2381768e-39
0.062154286 -0.22903429 0.89400005 3.9636806e-39
0.063857146 -0.22903429 0.89400005 3.6870937e-39
0.065340005 -0.22826573 0.89100003 3.5027305e-39
0.067037143 -0.22826573 0.89100003 3.871513e-39
0.068734288 -0.22826573 0.89100003 4.5143489e-39
0.070273332 -0.22775336 0.88900006 4.6065445e-39
0.07196667 -0.22775336 0.88900006 4.0548253e-39
-0.03039143 -0.24589431 0.96700007 1.014887e-38
-0.028549524 -0.24589431 0.96700007 1.5208385e-38
-0.026707619 -0.24589431 0.96700007 1.7605471e-38
-0.024865715 -0.24589431 0.96700007 1.6781098e-38
-0.022904763 -0.24462289 0.96200007 1.5305968e-38
-0.021072382 -0.24462289 0.96200007 1.162462e-38
-0.01902 -0.24182571 0.95100003 8.3055773e-39
-0.017118096 -0.2405543 0.94600004 7.9335479e-39
-0.015316191 -0.2405543 0.94600004 7.9335479e-39
-0.013514286 -0.2405543 0.94600004 8.7593457e-39
-0.011712381 -0.2405543 0.94600004 9.2203239e-39
-0.0098476186 -0.23902857 0.94000006 9.2210428e-39
-0.0080571435 -0.23902857 0.94000006 9.2210428e-39
-0.0062533333 -0.23852 0.93800002 9.5883861e-39
-0.0044666668 -0.23852 0.93800002 9.5883861e-39
-0.0026714287 -0.23775716 0.93500006 9.3128755e-39
-0.00088857143 -0.23724857 0.93300003 9.2206798e-39
0.00088571431 -0.23648572 0.93000007 9.2206798e-39
0.0026514288 -0.23597716 0.92800003 9.4972667e-39
0.0044190479 -0.23597716 0.92800003 9.497617e-39
0.0061866669 -0.23597716 0.92800003 9.7742039e-39
0.0079542855 -0.23597716 0.92800003 9.4961905e-39
0.0096904775 -0.23521431 0.92500007 7.2834954e-39
0.011452381 -0.23521431 0.92500007 3.8805234e-39
0.013214286 -0.23521431 0.92500007 5.4478491e-39
0.014976191 -0.23521431 0.92500007 7.7481421e-39
0.016738096 -0.23521431 0.92500007 5.535447e-39
0.0185 -0.23521431 0.92500007 6.7167136e-39
0.020152381 -0.23394285 0.92000002 6.1635398e-39
0.021857142 -0.2334343 0.91800004 7.3533739e-39
0.023605715 -0.2334343 0.91800004 7.5377652e-39
0.025354287 -0.2334343 0.91800004 6.7130044e-39
0.02710286 -0.2334343 0.91800004 7.0817869e-39
0.028851429 -0.2334343 0.91800004 7.175807e-39
0.0306 -0.2334343 0.91800004 6.3460463e-39
0.032348573 -0.2334343 0.91800004 5.8846884e-39
0.033985715 -0.23267144 0.91500002 5.6081016e-39
0.03572857 -0.23267144 0.91500002 6.617604e-39
0.037389524 -0.23216286 0.91300005 7.1707778e-39
0.039128575 -0.23216286 0.91300005 8.3642819e-39
0.040867623 -0.23216286 0.91300005 8.5486731e-39
0.042466667 -0.2314 0.91000003 8.9149263e-39
0.044102859 -0.23089145 0.90800005 9.0993176e-39
0.045479048 -0.22911143 0.90100002 1.0292106e-38
0.047195237 -0.22911143 0.90100002 1.0937475e-38
0.048748575 -0.22834858 0.89800006 1.0662696e-38
0.05045905 -0.22834858 0.89800006 1.0847087e-38
0.052169528 -0.22834858 0.89800006 1.0573387e-38
0.05376 -0.22784001 0.89600003 1.0481191e-38
0.055466667 -0.22784001 0.89600003 7.7285954e-39
0.057173334 -0.22784001 0.89600003 4.9627265e-39
0.058748577 -0.22733144 0.89400005 3.6831939e-39
0.060451429 -0.22733144 0.89400005 4.0519764e-39
0.062154286 -0.22733144 0.89400005 3.7778726e-39
0.063857146 -0.22733144 0.89400005 3.5934814e-39
0.065560006 -0.22733144 0.89400005 3.4105349e-39
0.067262866 -0.22733144 0.89400005 4.1480999e-39
0.068734288 -0.22656856 0.89100003 4.2395668e-39
0.070431434 -0.22656856 0.89100003 3.7785887e-39
0.072128572 -0.22656856 0.89100003 4.3295975e-39
0.073825717 -0.22656856 0.89100003 7.8330314e-39
-0.032333333 -0.24480954 0.97000003 1.6135742e-38
-0.03039143 -0.24405238 0.96700007 1.6965502e-38
-0.028549524 -0.24405238 0.96700007 1.5396038e-38
-0.026624763 -0.24329524 0.96400005 1.3552126e-38
-0.024788573 -0.24329524 0.96400005 1.051149e-38
-0.022833334 -0.24203335 0.95900005 8.6675775e-39
-0.020897144 -0.24077144 0.95400006 7.3810832e-39
-0.01902 -0.2400143 0.95100003 7.3810832e-39
-0.017154286 -0.23925716 0.94800007 8.3008843e-39
-0.015348572 -0.23925716 0.94800007 8.8540581e-39
-0.013514286 -0.23875239 0.94600004 9.2210428e-39
-0.011712381 -0.23875239 0.94600004 9.2210428e-39
-0.009879048 -0.23799524 0.94300002 9.2210428e-39
-0.0080571435 -0.23723811 0.94000006 9.2210428e-39
-0.006266667 -0.23723811 0.94000006 9.22104e-39
-0.0044666668 -0.23673333 0.93800002 9.1288443e-39
-0.0026714287 -0.23597619 0.93500006 9.0366389e-39
-0.00088857143 -0.23547144 0.93300003 9.1288345e-39
0.00088571431 -0.2347143 0.93000007 9.3128726e-39
0.0026571429 -0.2347143 0.93000007 9.4050683e-39
0.004428572 -0.2347143 0.93000007 9.4976142e-39
0.0061866669 -0.23420954 0.92800003 9.6820055e-39
0.0079542855 -0.23420954 0.92800003 9.864257e-39
0.009721905 -0.23420954 0.92800003 7.4671706e-39
0.011489524 -0.23420954 0.92800003 3.3252182e-39
0.013214286 -0.23345239 0.92500007 1.8500881e-39
0.014976191 -0.23345239 0.92500007 3.4095077e-39
0.016738096 -0.23345239 0.92500007 3.0407252e-39
0.0185 -0.23345239 0.92500007 6.8016421e-39
0.020261906 -0.23345239 0.92500007 7.9079897e-39
0.022023812 -0.23345239 0.92500007 8.2753204e-39
0.023657143 -0.23219047 0.92000002 7.629951e-39
0.025409523 -0.23219047 0.92000002 6.344219e-39
0.02710286 -0.23168571 0.91800004 6.4364147e-39
0.028851429 -0.23168571 0.91800004 7.0814618e-39
0.0306 -0.23168571 0.91800004 8.0034181e-39
0.032419048 -0.23219047 0.92000002 8.2760211e-39
0.034171429 -0.23219047 0.92000002 8.3682167e-39
0.035923809 -0.23219047 0.92000002 8.5493934e-39
0.037594289 -0.23168571 0.91800004 8.4571978e-39
0.039214283 -0.23092857 0.91500002 9.1904594e-39
0.040733334 -0.22966668 0.91000003 9.7436332e-39
0.042466667 -0.22966668 0.91000003 1.0295699e-38
0.044102859 -0.22916192 0.90800005 1.0664481e-38
0.045479048 -0.22739524 0.90100002 1.0755226e-38
0.047195237 -0.22739524 0.90100002 1.0755226e-38
0.048748575 -0.22663811 0.89800006 1.0846002e-38
0.05045905 -0.22663811 0.89800006 1.1306981e-38
0.052053336 -0.22613333 0.89600003 1.0575182e-38
0.05376 -0.22613333 0.89600003 9.3766387e-39
0.055466667 -0.22613333 0.89600003 6.8992033e-39
0.057173334 -0.22613333 0.89600003 5.5162689e-39
0.058748577 -0.22562858 0.89400005 3.5009578e-39
0.060451429 -0.22562858 0.89400005 3.5009578e-39
0.062293336 -0.22613333 0.89600003 2.8573639e-39
0.064000003 -0.22613333 0.89600003 2.580777e-39
0.06570667 -0.22613333 0.89600003 3.2239982e-39
0.067413338 -0.22613333 0.89600003 4.3303458e-39
0.069120005 -0.22613333 0.89600003 4.0551756e-39
0.070826672 -0.22613333 0.89600003 4.5161537e-39
0.072533339 -0.22613333 0.89600003 5.5310343e-39
0.074405722 -0.22663811 0.89800006 1.1615946e-38
-0.032233335 -0.24221049 0.96700007 1.7423231e-38
-0.030234287 -0.24095811 0.96200007 1.6501275e-38
-0.028401908 -0.24095811 0.96200007 1.4568769e-38
-0.026569527 -0.24095811 0.96200007 1.1618509e-38
-0.024660001 -0.24020667 0.95900005 9.0406144e-39
-0.022761906 -0.23945524 0.95600003 7.5654843e-39
-0.020897144 -0.23895429 0.95400006 7.6537142e-39
-0.01902 -0.23820285 0.95100003 8.6678662e-39
-0.017208571 -0.23820285 0.95100003 9.2206798e-39
-0.015316191 -0.23695047 0.94600004 9.2206798e-39
-0.013514286 -0.23695047 0.94600004 9.22104e-39
-0.011712381 -0.23695047 0.94600004 9.22104e-39
-0.009879048 -0.23619905 0.94300002 8.9462481e-39
-0.0080828574 -0.23619905 0.94300002 8.9462481e-39
-0.006266667 -0.23544763 0.94000006 9.22104e-39
-0.0044666668 -0.23494667 0.93800002 9.22104e-39
-0.0026714287 -0.23419525 0.93500006 9.1292003e-39
-0.00088857143 -0.2336943 0.93300003 9.0370046e-39
0.00088571431 -0.23294286 0.93000007 9.1284842e-39
0.0026571429 -0.23294286 0.93000007 9.4972667e-39
0.004428572 -0.23294286 0.93000007 1.014191e-38
0.0062000002 -0.23294286 0.93000007 1.0049715e-38
0.0079714293 -0.23294286 0.93000007 9.4954688e-39
0.0097428579 -0.23294286 0.93000007 6.2686218e-39
0.011489524 -0.23244192 0.92800003 3.6896707e-39
0.013257143 -0.23244192 0.92800003 1.9379537e-39
0.015024763 -0.23244192 0.92800003 4.9681622e-39
0.016738096 -0.2316905 0.92500007 6.4432923e-39
0.0185 -0.2316905 0.92500007 8.5493766e-39
0.020261906 -0.2316905 0.92500007 9.6557241e-39
0.022023812 -0.2316905 0.92500007 8.9206997e-39
0.023785716 -0.2316905 0.92500007 8.090939e-39
0.025547622 -0.2316905 0.92500007 5.6081016e-39
0.027309526 -0.2316905 0.92500007 5.1471234e-39
0.02907143 -0.2316905 0.92500007 7.1682596e-39
0.030833337 -0.2316905 0.92500007 8.6433897e-39
0.032524761 -0.23118953 0.92300004 9.1925824e-39
0.034171429 -0.2304381 0.92000002 9.1003868e-39
0.035923809 -0.2304381 0.92000002 9.3733891e-39
0.037594289 -0.22993715 0.91800004 9.4655848e-39
0.039214283 -0.22918572 0.91500002 9.8325722e-39
0.040733334 -0.22793333 0.91000003 1.0570137e-38
0.042466667 -0.22793333 0.91000003 1.0664466e-38
0.044102859 -0.2274324 0.90800005 1.0848857e-38
0.04558 -0.22618002 0.90300006 1.1122204e-38
0.047300003 -0.22618002 0.90300006 1.1306595e-38
0.048748575 -0.22492763 0.89800006 1.1305169e-38
0.05045905 -0.22492763 0.89800006 1.2042734e-38
0.052053336 -0.22442667 0.89600003 1.0209283e-38
0.05376 -0.22442667 0.89600003 9.1029357e-39
0.055466667 -0.22442667 0.89600003 5.1489507e-39
0.057173334 -0.22442667 0.89600003 4.7801682e-39
0.058880001 -0.22442667 0.89600003 3.686068e-39
0.060586669 -0.22442667 0.89600003 3.1328942e-39
0.062293336 -0.22442667 0.89600003 2.6736733e-39
0.064000003 -0.22442667 0.89600003 2.489282e-39
0.06570667 -0.22442667 0.89600003 3.1321529e-39
0.067413338 -0.22442667 0.89600003 3.6853267e-39
0.069274291 -0.22492763 0.89800006 3.4105349e-39
0.070984766 -0.22492763 0.89800006 6.7295775e-39
0.07269524 -0.22492763 0.89800006 7.5615186e-39
0.074405722 -0.22492763 0.89800006 1.1618126e-38
-0.03389905 -0.23912573 0.96200007 1.5119789e-38
-0.032066669 -0.23912573 0.96200007 1.2816709e-38
-0.030234287 -0.23912573 0.96200007 9.4976661e-39
-0.028313335 -0.23838001 0.95900005 7.934257e-39
-0.026486667 -0.23838001 0.95900005 7.3810832e-39
-0.024660001 -0.23838001 0.95900005 7.9338815e-39
-0.022761906 -0.23763429 0.95600003 8.6714465e-39
-0.020897144 -0.23713715 0.95400006 8.8540553e-39
-0.01902 -0.23639144 0.95100003 9.0384466e-39
-0.017208571 -0.23639144 0.95100003 9.5883861e-39
-0.015316191 -0.23514858 0.94600004 9.4961905e-39
-0.013514286 -0.23514858 0.94600004 9.3132356e-39
-0.011712381 -0.23514858 0.94600004 9.22104e-39
-0.009879048 -0.23440285 0.94300002 9.0370018e-39
-0.0080828574 -0.23440285 0.94300002 9.1291975e-39
-0.006266667 -0.23365715 0.94000006 9.1288471e-39
-0.0044666668 -0.23316 0.93800002 9.1288471e-39
-0.0026714287 -0.23241431 0.93500006 9.0362956e-39
-0.00088857143 -0.23191714 0.93300003 8.9440999e-39
0.00088857143 -0.23191714 0.93300003 9.0362858e-39
0.0026571429 -0.23117143 0.93000007 9.5894595e-39
0.004428572 -0.23117143 0.93000007 9.5894567e-39
0.0062000002 -0.23117143 0.93000007 7.3767616e-39
0.0079714293 -0.23117143 0.93000007 6.6348862e-39
0.0097428579 -0.23117143 0.93000007 4.5143867e-39
0.011514287 -0.23117143 0.93000007 4.4178821e-39
0.013257143 -0.2306743 0.92800003 3.4037301e-39
0.015024763 -0.2306743 0.92800003 5.9768841e-39
0.016792381 -0.2306743 0.92800003 7.8207967e-39
0.0185 -0.22992858 0.92500007 8.9185094e-39
0.020261906 -0.22992858 0.92500007 9.1950963e-39
0.022023812 -0.22992858 0.92500007 9.1040175e-39
0.023785716 -0.22992858 0.92500007 8.8274306e-39
0.025547622 -0.22992858 0.92500007 8.0919984e-39
0.027309526 -0.22992858 0.92500007 7.5388246e-39
0.02907143 -0.22992858 0.92500007 8.3632127e-39
0.030833337 -0.22992858 0.92500007 8.8241908e-39
0.03259524 -0.22992858 0.92500007 1.0111289e-38
0.034282859 -0.22943144 0.92300004 1.0572267e-38
0.035923809 -0.22868572 0.92000002 1.0387175e-38
0.037471429 -0.22744286 0.91500002 1.0663762e-38
0.039128575 -0.22694573 0.91300005 1.0571569e-38
0.040733334 -0.2262 0.91000003 1.0755961e-38
0.042373337 -0.22570287 0.90800005 1.0846719e-38
0.044102859 -0.22570287 0.90800005 1.0662327e-38
0.04558 -0.22446001 0.90300006 1.1029298e-38
0.047300003 -0.22446001 0.90300006 1.1029298e-38
0.048748575 -0.22321716 0.89800006 1.1211894e-38
0.05045905 -0.22321716 0.89800006 1.1857264e-38
0.052053336 -0.22272 0.89600003 1.0851413e-38
0.053640001 -0.22222286 0.89400005 1.0851413e-38
0.055342861 -0.22222286 0.89400005 6.6215851e-39
0.057045717 -0.22222286 0.89400005 4.7776725e-39
0.058880001 -0.22272 0.89600003 3.2268877e-39
0.060586669 -0.22272 0.89600003 2.5815183e-39
0.062293336 -0.22272 0.89600003 2.4881904e-39
0.064000003 -0.22272 0.89600003 2.6725817e-39
0.06570667 -0.22272 0.89600003 3.1318026e-39
0.067413338 -0.22272 0.89600003 2.4864332e-39
0.069274291 -0.22321716 0.89800006 2.1201618e-39
0.070984766 -0.22321716 0.89800006 9.4958122e-39
0.072938092 -0.22396286 0.90100002 1.1708517e-38
-0.048037145 -0.24395333 0.98900002 1.8255852e-38
-0.046060003 -0.24346001 0.98700005 1.4475831e-38
-0.044045717 -0.24271999 0.98400003 1.4749188e-38
-0.04217143 -0.24271999 0.98400003 1.6408709e-38
-0.035805713 -0.23778668 0.96400005 1.5491088e-38
-0.03389905 -0.23729335 0.96200007 1.3831567e-38
-0.032066669 -0.23729335 0.96200007 1.097745e-38
-0.030234287 -0.23729335 0.96200007 7.2896247e-39
-0.028313335 -0.23655334 0.95900005 7.8399034e-39
-0.026486667 -0.23655334 0.95900005 8.3930772e-39
-0.024582857 -0.23581333 0.95600003 8.6696668e-39
-0.022761906 -0.23581333 0.95600003 9.2228406e-39
-0.020897144 -0.23532002 0.95400006 9.5898253e-39
-0.01902 -0.23458001 0.95100003 9.5898253e-39
-0.017208571 -0.23458001 0.95100003 9.3128853e-39
-0.015348572 -0.23384 0.94800007 9.2206896e-39
-0.013514286 -0.23334667 0.94600004 9.4039949e-39
-0.011712381 -0.23334667 0.94600004 9.4039949e-39
-0.009879048 -0.23260666 0.94300002 9.1284786e-39
-0.0080571435 -0.23186669 0.94000006 9.2206742e-39
-0.0062533333 -0.23137332 0.93800002 9.220677e-39
-0.0044666668 -0.23137332 0.93800002 9.220677e-39
-0.0026714287 -0.23063333 0.93500006 9.2206868e-39
-0.00089047622 -0.23063333 0.93500006 9.0362956e-39
0.00089047622 -0.23063333 0.93500006 9.2206868e-39
0.0026657144 -0.23014 0.93300003 9.4050781e-39
0.0044428571 -0.23014 0.93300003 8.299434e-39
0.0062199999 -0.23014 0.93300003 4.4272175e-39
0.0079971431 -0.23014 0.93300003 4.5115238e-39
0.0097742863 -0.23014 0.93300003 4.8803064e-39
0.011576191 -0.23063333 0.93500006 5.7024902e-39
0.013328572 -0.23014 0.93300003 5.3337077e-39
0.015057144 -0.22940001 0.93000007 6.8920259e-39
0.016792381 -0.22890668 0.92800003 8.7359385e-39
0.01856 -0.22890668 0.92800003 8.9185094e-39
0.020327618 -0.22890668 0.92800003 9.0107051e-39
0.022095239 -0.22890668 0.92800003 9.1021972e-39
0.023785716 -0.22816667 0.92500007 9.0100016e-39
0.025547622 -0.22816667 0.92500007 8.9163612e-39
0.027309526 -0.22816667 0.92500007 8.8241656e-39
0.02907143 -0.22816667 0.92500007 9.4648561e-39
0.030833337 -0.22816667 0.92500007 9.4648561e-39
0.03259524 -0.22816667 0.92500007 1.0476497e-38
0.034171429 -0.22693333 0.92000002 1.1029671e-38
0.035845716 -0.22644001 0.91800004 1.0938178e-38
0.037471429 -0.22569999 0.91500002 1.1491352e-38
0.039128575 -0.22520667 0.91300005 1.1123308e-38
0.040733334 -0.22446667 0.91000003 1.0938917e-38
0.042373337 -0.22397335 0.90800005 1.0938198e-38
0.044005714 -0.22348 0.90600002 1.0938198e-38
0.04558 -0.22274001 0.90300006 1.1029658e-38
0.047300003 -0.22274001 0.90300006 1.0753071e-38
0.048748575 -0.22150669 0.89800006 1.0937102e-38
0.05045905 -0.22150669 0.89800006 1.1029298e-38
0.052053336 -0.22101334 0.89600003 1.1216598e-38
0.053640001 -0.22052002 0.89400005 1.2507337e-38
0.055342861 -0.22052002 0.89400005 8.0063146e-39
0.057045717 -0.22052002 0.89400005 4.0419025e-39
0.058880001 -0.22101334 0.89600003 2.6726167e-39
0.060586669 -0.22101334 0.89600003 2.8570079e-39
0.062293336 -0.22101334 0.89600003 2.8559163e-39
0.064000003 -0.22101334 0.89600003 2.8559163e-39
0.06570667 -0.22101334 0.89600003 2.9474113e-39
0.067563809 -0.22150669 0.89800006 1.8410638e-39
0.069505714 -0.22224668 0.90100002 1.4729819e-39
-0.048037145 -0.24206953 0.98900002 1.7334606e-38
-0.046060003 -0.24158001 0.98700005 1.6873628e-38
-0.044045717 -0.24084571 0.98400003 1.6504149e-38
-0.04217143 -0.24084571 0.98400003 1.6135366e-38
-0.040297143 -0.24084571 0.98400003 1.4568413e-38
-0.037641905 -0.23595048 0.96400005 1.189474e-38
-0.035805713 -0.23595048 0.96400005 9.0385082e-39
-0.03389905 -0.23546097 0.96200007 8.1165519e-39
-0.032066669 -0.23546097 0.96200007 8.1175693e-39
-0.030140001 -0.23472668 0.95900005 8.5785474e-39
-0.028313335 -0.23472668 0.95900005 9.0388123e-39
-0.026486667 -0.23472668 0.95900005 9.6841817e-39
-0.024582857 -0.23399238 0.95600003 9.6820447e-39
-0.022761906 -0.23399238 0.95600003 9.6820447e-39
-0.020897144 -0.23350286 0.95400006 9.5894595e-39
-0.01902 -0.23276858 0.95100003 9.5894595e-39
-0.017208571 -0.23276858 0.95100003 9.7720726e-39
-0.015348572 -0.2320343 0.94800007 9.6798769e-39
-0.013514286 -0.23154476 0.94600004 9.5876645e-39
-0.011712381 -0.23154476 0.94600004 9.4032732e-39
-0.009879048 -0.23081048 0.94300002 9.680216e-39
-0.0080571435 -0.23007621 0.94000006 9.8646073e-39
-0.0062533333 -0.22958668 0.93800002 9.4057815e-39
-0.0044666668 -0.22958668 0.93800002 9.6823684e-39
-0.0026714287 -0.22885239 0.93500006 9.4987227e-39
-0.00089047622 -0.22885239 0.93500006 8.668962e-39
0.00089047622 -0.22885239 0.93500006 8.1129338e-39
0.0026657144 -0.22836286 0.93300003 6.5456081e-39
0.0044428571 -0.22836286 0.93300003 5.1618735e-39
0.0062199999 -0.22836286 0.93300003 1.5662439e-39
0.0079971431 -0.22836286 0.93300003 4.0444374e-39
0.0097952392 -0.22885239 0.93500006 5.0585894e-39
0.011576191 -0.22885239 0.93500006 6.5275691e-39
0.013328572 -0.22836286 0.93300003 8.0948949e-39
0.015057144 -0.22762857 0.93000007 8.2774756e-39
0.016792381 -0.22713904 0.92800003 7.8164975e-39
0.01856 -0.22713904 0.92800003 8.4568278e-39
0.020327618 -0.22713904 0.92800003 8.0880453e-39
0.022095239 -0.22713904 0.92800003 8.3624588e-39
0.023862859 -0.22713904 0.92800003 8.6390457e-39
0.025630476 -0.22713904 0.92800003 9.5588496e-39
0.027398096 -0.22713904 0.92800003 1.0112023e-38
0.02907143 -0.22640479 0.92500007 1.0294964e-38
0.030833337 -0.22640479 0.92500007 1.0294964e-38
0.032524761 -0.22591525 0.92300004 1.0568342e-38
0.034097143 -0.22469144 0.91800004 1.1121516e-38
0.035845716 -0.22469144 0.91800004 1.1028957e-38
0.037471429 -0.22395714 0.91500002 1.1121153e-38
0.039128575 -0.22346762 0.91300005 1.11208e-38
0.040733334 -0.22273333 0.91000003 1.1305191e-38
0.042373337 -0.22224383 0.90800005 1.1121869e-38
0.044005714 -0.2217543 0.90600002 1.0937478e-38
0.04558 -0.22102001 0.90300006 1.1028239e-38
0.047300003 -0.22102001 0.90300006 1.0936043e-38
0.04891143 -0.22053048 0.90100002 1.0293888e-38
0.05045905 -0.2197962 0.89800006 1.0201692e-38
0.052169528 -0.2197962 0.89800006 1.057086e-38
0.05376 -0.21930666 0.89600003 1.3060142e-38
0.055466667 -0.21930666 0.89600003 9.6600752e-39
0.057173334 -0.21930666 0.89600003 7.1707932e-39
0.059011433 -0.2197962 0.89800006 3.3165442e-39
0.060721908 -0.2197962 0.89800006 3.7775223e-39
0.062293336 -0.21930666 0.89600003 3.6853491e-39
0.064000003 -0.21930666 0.89600003 3.6853491e-39
0.06570667 -0.21930666 0.89600003 3.408063e-39
0.067563809 -0.2197962 0.89800006 1.1031722e-39
0.069505714 -0.22053048 0.90100002 3.69521e-40
-0.047794286 -0.23897144 0.98400003 1.613789e-38
-0.045919999 -0.23897144 0.98400003 1.613789e-38
-0.043911431 -0.23824286 0.98100007 1.632048e-38
-0.041914288 -0.2375143 0.97800004 1.5398524e-38
-0.039846666 -0.23630001 0.97300005 1.199304e-38
-0.037641905 -0.23411429 0.96400005 9.4115619e-39
-0.035731431 -0.23362859 0.96200007 8.8537162e-39
-0.03389905 -0.23362859 0.96200007 8.3005424e-39
-0.032066669 -0.23362859 0.96200007 8.9440873e-39
-0.030140001 -0.23290001 0.95900005 9.4050655e-39
-0.028313335 -0.23290001 0.95900005 9.1306422e-39
-0.026486667 -0.23290001 0.95900005 9.1306422e-39
-0.024582857 -0.23217145 0.95600003 9.2199848e-39
-0.022761906 -0.23217145 0.95600003 9.3121804e-39
-0.020831428 -0.23095715 0.95100003 9.4958248e-39
-0.01902 -0.23095715 0.95100003 9.680216e-39
-0.017208571 -0.23095715 0.95100003 9.862822e-39
-0.015348572 -0.23022859 0.94800007 9.862822e-39
-0.013514286 -0.22974287 0.94600004 1.0324506e-38
-0.011712381 -0.22974287 0.94600004 1.0508898e-38
-0.009879048 -0.22901429 0.94300002 1.0602523e-38
-0.0080571435 -0.22828573 0.94000006 1.0325936e-38
-0.006266667 -0.22828573 0.94000006 9.6838132e-39
-0.0044666668 -0.2278 0.93800002 9.3150306e-39
-0.0026800002 -0.2278 0.93800002 9.2228406e-39
-0.00089047622 -0.22707145 0.93500006 8.1164931e-39
0.00089047622 -0.22707145 0.93500006 7.1923858e-39
0.0026714287 -0.22707145 0.93500006 5.9938426e-39
0.0044523813 -0.22707145 0.93500006 5.5288511e-39
0.0062333336 -0.22707145 0.93500006 2.7629822e-39
0.0080142869 -0.22707145 0.93500006 5.2389981e-39
0.0097952392 -0.22707145 0.93500006 5.6999763e-39
0.011576191 -0.22707145 0.93500006 7.1682596e-39
0.013357143 -0.22707145 0.93500006 8.7355853e-39
0.015138096 -0.22707145 0.93500006 8.4593516e-39
0.016882857 -0.22658572 0.93300003 7.9983734e-39
0.0186 -0.22585717 0.93000007 8.2717205e-39
0.02037143 -0.22585717 0.93000007 7.902938e-39
0.022142859 -0.22585717 0.93000007 8.3613896e-39
0.023862859 -0.22537144 0.92800003 9.0989546e-39
0.025630476 -0.22537144 0.92800003 9.8332883e-39
0.027398096 -0.22537144 0.92800003 1.1031831e-38
0.02907143 -0.22464287 0.92500007 1.0664466e-38
0.030833337 -0.22464287 0.92500007 1.0295683e-38
0.032524761 -0.22415714 0.92300004 1.0845282e-38
0.034097143 -0.22294286 0.91800004 1.130626e-38
0.035845716 -0.22294286 0.91800004 1.130626e-38
0.037471429 -0.2222143 0.91500002 1.1214065e-38
0.039128575 -0.22172859 0.91300005 1.1488153e-38
0.040867623 -0.22172859 0.91300005 1.1580349e-38
0.042466667 -0.221 0.91000003 1.1488857e-38
0.044005714 -0.22002856 0.90600002 1.1581052e-38
0.045731429 -0.22002856 0.90600002 1.1121854e-38
0.047457144 -0.22002856 0.90600002 1.056868e-38
0.04891143 -0.21881428 0.90100002 1.0109844e-38
0.05045905 -0.21808574 0.89800006 9.5566706e-39
0.052169528 -0.21808574 0.89800006 1.020132e-38
0.053880006 -0.21808574 0.89800006 1.3704754e-38
0.055590477 -0.21808574 0.89800006 1.1225202e-38
0.057300955 -0.21808574 0.89800006 8.6437246e-39
0.059011433 -0.21808574 0.89800006 6.1666928e-39
0.060721908 -0.21808574 0.89800006 4.6915627e-39
0.062293336 -0.2176 0.89600003 3.5931535e-39
0.064000003 -0.2176 0.89600003 3.4087622e-39
0.06570667 -0.2176 0.89600003 3.3179889e-39
0.067563809 -0.21808574 0.89800006 1.289685e-39
0.069505714 -0.21881428 0.90100002 5.5854636e-40
-0.049668573 -0.23709714 0.98400003 1.6043163e-38
