# .PCD v0.7 - Point Cloud Data file format
VERSION 0.7
FIELDS x y z rgb
SIZE 4 4 4 4
TYPE F F F F
COUNT 1 1 1 1
WIDTH 976
HEIGHT 1
VIEWPOINT 0 0 0 1 0 0 0
POINTS 976
DATA ascii
-0.011736374 -0.19917551 0.62945169 1.4105969e-38
-0.010558166 -0.19928303 0.62938905 1.4014847e-38
-0.0094174594 -0.19924811 0.628286 1.4014847e-38
-0.0082805492 -0.19921283 0.62718308 1.4289642e-38
-0.0071474221 -0.19917719 0.62608045 1.4289642e-38
-0.0059748963 -0.19928421 0.62601811 1.4381121e-38
-0.0048474539 -0.19924805 0.62491572 1.4749904e-38
-0.003817752 -0.19892485 0.62173367 1.4565878e-38
-0.0026528053 -0.19903119 0.62167174 1.4565878e-38
-0.0015386194 -0.19899383 0.62057006 1.4474399e-38
-0.00037556514 -0.19909997 0.62050825 1.4843181e-38
0.00078748912 -0.19920613 0.62044644 1.493573e-38
0.0018940978 -0.19916807 0.61934519 1.493573e-38
0.0030552596 -0.19927405 0.6192835 1.4843181e-38
0.0041561797 -0.1992355 0.61818254 1.5027572e-38
0.0053154454 -0.1993413 0.61812091 1.5119768e-38
0.0064106844 -0.1993022 0.61702025 1.5211964e-38
0.0075680539 -0.19940785 0.61695874 1.5304162e-38
0.0086576156 -0.19936824 0.61585832 1.5396358e-38
0.0097433887 -0.19932827 0.61475825 1.5396355e-38
0.010896973 -0.19943357 0.61469692 1.5488551e-38
0.012050554 -0.19953886 0.61463559 1.5488904e-38
0.013204139 -0.19964415 0.61457431 1.5581099e-38
0.014357723 -0.19974941 0.61451298 1.5581102e-38
0.015511304 -0.1998547 0.61445171 1.5673298e-38
0.016664889 -0.19995999 0.61439037 1.5765493e-38
0.017735504 -0.19991866 0.61329103 1.5673298e-38
0.018887192 -0.20002377 0.61322981 1.5581822e-38
0.020125635 -0.20027587 0.61420643 1.5581822e-38
0.021190569 -0.200234 0.61310738 1.5674021e-38
0.022342257 -0.20033911 0.61304617 1.5581825e-38
0.02340151 -0.20029674 0.61194748 1.5304882e-38
0.024456974 -0.20025399 0.61084884 1.5489274e-38
0.02560487 -0.20035878 0.61078781 1.5581825e-38
0.026949011 -0.20075957 0.61280131 1.5950608e-38
0.024600182 -0.19567835 0.57644033 1.6226469e-38
0.025685571 -0.19577742 0.57638264 1.6318664e-38
0.026770964 -0.19587648 0.57632494 1.6040643e-38
0.027856357 -0.19597554 0.57626724 1.4749904e-38
0.028941747 -0.1960746 0.5762096 1.4565878e-38
0.030027136 -0.19617367 0.57615191 1.5395639e-38
0.031112529 -0.19627273 0.57609421 1.5488541e-38
0.032197915 -0.19637179 0.57603651 1.5672932e-38
0.033283308 -0.19647086 0.57597882 1.5764056e-38
0.034368701 -0.19656992 0.57592118 1.5856251e-38
0.03557305 -0.19681886 0.57689953 1.5856254e-38
0.036660336 -0.1969181 0.57684177 1.594845e-38
0.037747622 -0.19701734 0.57678396 1.6041359e-38
0.038710266 -0.19696617 0.57569039 1.6133554e-38
0.039669126 -0.19691464 0.574597 1.6042075e-38
0.040752627 -0.19701353 0.57453942 1.6042075e-38
0.04183612 -0.19711241 0.57448184 1.5858409e-38
0.0491338 -0.20431395 0.62308925 1.6319387e-38
0.05017221 -0.20426968 0.62199163 1.6227555e-38
0.050934829 -0.20392209 0.61882371 1.6411946e-38
0.052099772 -0.20402843 0.61876184 1.6503781e-38
0.053264722 -0.20413475 0.61869991 1.6503781e-38
0.054429673 -0.20424107 0.61863798 1.6503426e-38
0.055594616 -0.2043474 0.61857605 1.6503426e-38
0.056905054 -0.20460606 0.61954892 1.6411583e-38
0.058366634 -0.20501757 0.6215561 1.6411583e-38
0.059537254 -0.20512441 0.62149388 1.6594898e-38
0.060859047 -0.20538411 0.62246609 1.6687094e-38
0.062031575 -0.20549113 0.6224038 1.6502702e-38
0.063359044 -0.20575134 0.62337565 1.6502702e-38
0.064847149 -0.20616525 0.62538153 1.6227195e-38
0.066342823 -0.20657986 0.62738687 1.631939e-38
0.068006732 -0.20714889 0.63042587 1.6043163e-38
0.069356926 -0.20741118 0.63139653 1.5950968e-38
0.070710905 -0.20767379 0.63236701 1.6042801e-38
0.071902372 -0.20778254 0.63230371 1.5489627e-38
0.073430263 -0.2082001 0.63430744 1.5030098e-38
0.074625529 -0.20830919 0.63424391 1.3647163e-38
0.07599277 -0.20857304 0.63521367 1.4201419e-38
0.077189922 -0.2086823 0.63515002 1.8626809e-38
-0.020805251 -0.19909775 0.64431643 1.6135352e-38
-0.019600524 -0.19920772 0.64425242 1.3830835e-38
-0.018395796 -0.19931766 0.64418834 1.2816684e-38
-0.017215464 -0.19928822 0.64308357 1.3276934e-38
-0.016196679 -0.198421 0.6357345 1.3553521e-38
-0.015007107 -0.19852957 0.63567126 1.3553521e-38
-0.013907775 -0.19821838 0.63248652 1.3645717e-38
-0.012723885 -0.19832644 0.63242358 1.3920862e-38
-0.011607734 -0.19815397 0.63028008 1.4197449e-38
-0.010463394 -0.19812125 0.62917709 1.4197802e-38
-0.0092851855 -0.19822881 0.62911451 1.4197802e-38
-0.0081465282 -0.19819558 0.62801188 1.4197449e-38
-0.0070116613 -0.19816194 0.62690938 1.4197449e-38
-0.0058372412 -0.19826914 0.62684697 1.4289291e-38
-0.004708061 -0.19823505 0.62574488 1.4658074e-38
-0.0035826601 -0.19820058 0.62464291 1.4658441e-38
-0.0025591012 -0.19788247 0.62146217 1.4750637e-38
-0.0013941526 -0.19798879 0.62140024 1.4659146e-38
-0.00022920221 -0.19809511 0.62133837 1.4843537e-38
0.00093574449 -0.19820143 0.62127644 1.493573e-38
0.0020440966 -0.19816545 0.62017536 1.493573e-38
0.0031486563 -0.19812909 0.61907458 1.4935733e-38
0.0043098181 -0.19823506 0.61901289 1.5027928e-38
0.0054086931 -0.19819818 0.61791235 1.5119768e-38
0.0065679587 -0.198304 0.61785072 1.5119768e-38
0.0076611489 -0.1982666 0.61675048 1.5211966e-38
0.0087505579 -0.19822887 0.61565048 1.5304162e-38
0.0099060386 -0.19833434 0.61558908 1.5396711e-38
0.010989763 -0.19829604 0.61448938 1.5304515e-38
0.012143344 -0.19840133 0.6144281 1.5396705e-38
0.013296928 -0.19850662 0.61436677 1.5949879e-38
0.014450513 -0.19861192 0.61430544 1.5581102e-38
0.015604094 -0.19871721 0.61424416 1.5488906e-38
0.016757678 -0.1988225 0.61418283 1.5580746e-38
0.017911263 -0.19892776 0.61412156 1.5672942e-38
0.019064844 -0.19903305 0.61406022 1.5672942e-38
0.020218424 -0.19913834 0.61399889 1.5765137e-38
0.021372013 -0.19924363 0.61393762 1.5857333e-38
0.022434898 -0.19920346 0.61283898 1.5672942e-38
0.023586586 -0.19930857 0.61277777 1.567259e-38
0.02464379 -0.19926791 0.61167949 1.5764786e-38
0.025793582 -0.19937286 0.6116184 1.5581473e-38
0.027041651 -0.19962393 0.61259413 1.6042452e-38
0.024687488 -0.19460806 0.57624507 1.6226466e-38
0.025772877 -0.19470713 0.57618737 1.6410857e-38
0.02685827 -0.19480619 0.57612967 1.5949166e-38
0.027943663 -0.19490525 0.57607198 1.438184e-38
0.029029053 -0.19500431 0.57601434 1.4473683e-38
0.030114442 -0.19510338 0.57595664 1.5303443e-38
0.031199835 -0.19520244 0.57589895 1.5580373e-38
0.032285221 -0.1953015 0.57584125 1.5672569e-38
0.033370614 -0.19540057 0.57578355 1.5580383e-38
0.034456007 -0.19549963 0.57572591 1.5672579e-38
0.035660505 -0.19574675 0.57670397 1.5764058e-38
0.036868796 -0.1959942 0.57768196 1.5671863e-38
0.037835084 -0.19594523 0.57658839 1.5948803e-38
0.038922362 -0.19604445 0.57653058 1.6133194e-38
0.04000964 -0.19614369 0.57647282 1.5949519e-38
0.047011644 -0.20309263 0.62403822 1.5949519e-38
0.048055582 -0.20305076 0.62294066 1.5857336e-38
0.049228109 -0.20315777 0.62287831 1.6502705e-38
0.050266378 -0.20311534 0.62178099 1.6687447e-38
0.051164694 -0.202923 0.61964905 1.6595251e-38
0.052331544 -0.20302951 0.61958706 1.6503781e-38
0.05349838 -0.203136 0.61952502 1.6411586e-38
0.05466523 -0.20324248 0.61946303 1.6503433e-38
0.055832066 -0.20334899 0.61940098 1.6503433e-38
0.057290159 -0.20375642 0.62140775 1.6319387e-38
0.058608308 -0.2040139 0.62237978 1.6411583e-38
0.059780829 -0.20412092 0.62231749 1.6411586e-38
0.060953356 -0.20422792 0.62225515 1.6411586e-38
0.062125884 -0.20433494 0.62219286 1.6595254e-38
0.063608624 -0.20474461 0.62419832 1.6503058e-38
0.065098912 -0.20515496 0.62620336 1.6226843e-38
0.066437908 -0.20541435 0.62717426 1.6226843e-38
0.068102263 -0.20597777 0.63021219 1.6134999e-38
0.069452606 -0.20623817 0.63118249 1.5766216e-38
0.070806749 -0.20649895 0.63215268 1.5674384e-38
0.072164685 -0.20676005 0.63312262 1.5397797e-38
0.073526405 -0.2070215 0.63409239 1.475316e-38
0.074721672 -0.2071306 0.63402891 1.3646813e-38
0.076089069 -0.20739257 0.63499832 1.4662041e-38
0.077286221 -0.20750183 0.63493466 1.8626453e-38
0.07901118 -0.20807078 0.63796937 1.8810467e-38
-0.020689476 -0.1980468 0.64514047 1.6227545e-38
-0.019482858 -0.19815695 0.64507633 1.3923031e-38
-0.018298892 -0.19812971 0.64397162 1.2816684e-38
-0.017118715 -0.19810215 0.64286715 1.3276934e-38
-0.016074549 -0.1973857 0.63656092 1.3553521e-38
-0.014883082 -0.19749445 0.63649756 1.3553521e-38
-0.013752081 -0.19732712 0.63435394 1.3737913e-38
-0.01262866 -0.19715905 0.63221061 1.4013058e-38
-0.011478789 -0.19712871 0.63110769 1.4105253e-38
-0.010332709 -0.19709805 0.630005 1.4197446e-38
-0.009190416 -0.19706702 0.62890249 1.4197446e-38
-0.0080122091 -0.19717455 0.62883991 1.4197449e-38
-0.0068755951 -0.19714299 0.62773776 1.4289644e-38
-0.0056992806 -0.19725034 0.62767524 1.4290007e-38
-0.004568357 -0.19721827 0.62657326 1.4566594e-38
-0.0034412201 -0.19718586 0.62547159 1.465879e-38
-0.0023178682 -0.19715309 0.6243701 1.4750985e-38
-0.001249373 -0.19698006 0.62222975 1.4751341e-38
-8.2530081e-05 -0.19708654 0.62216777 1.4935733e-38
0.0010294467 -0.19705273 0.62106687 1.493573e-38
0.0021376461 -0.19701859 0.61996615 1.493573e-38
0.0033007003 -0.19712473 0.61990434 1.5027926e-38
0.0044032149 -0.19709009 0.61880398 1.5120121e-38
0.0055643767 -0.19719607 0.61874229 1.5120121e-38
0.0066612065 -0.19716088 0.61764216 1.5212317e-38
0.0077542439 -0.19712535 0.61654228 1.5304162e-38
0.0089116171 -0.19723099 0.61648077 1.5396358e-38
0.0099989809 -0.19719493 0.61538118 1.5396355e-38
0.011154454 -0.1973004 0.61531979 1.5396355e-38
0.012309935 -0.19740584 0.61525834 1.5488904e-38
0.013465412 -0.19751132 0.61519694 1.5581099e-38
0.014543302 -0.19747442 0.61409795 1.5581102e-38
0.015696883 -0.19757971 0.61403662 1.5581102e-38
0.016850468 -0.197685 0.61397529 1.5764774e-38
0.018004052 -0.19779027 0.61391401 1.585697e-38
0.019157633 -0.19789556 0.61385268 1.585697e-38
0.020311214 -0.19800085 0.61379141 1.5949166e-38
0.021464802 -0.19810614 0.61373007 1.5857333e-38
0.022527531 -0.19806783 0.6126318 1.5857333e-38
0.023679227 -0.19817294 0.61257058 1.5857336e-38
0.024736278 -0.19813412 0.61147267 1.576514e-38
0.02588607 -0.19823907 0.61141157 1.5304882e-38
0.027134288 -0.1984883 0.61238694 1.6042447e-38
0.024875116 -0.19368225 0.57708621 1.6135349e-38
0.025860183 -0.19363686 0.57599211 1.6227545e-38
0.026945576 -0.19373593 0.57593441 1.5856973e-38
0.028030969 -0.19383499 0.57587671 1.4289647e-38
0.029116359 -0.19393405 0.57581908 1.4288926e-38
0.030201748 -0.19403312 0.57576138 1.5210882e-38
0.031287141 -0.19413218 0.57570368 1.5119402e-38
0.032372527 -0.19423124 0.57564598 1.5395989e-38
0.033573397 -0.19447613 0.57662392 1.5580383e-38
0.034660682 -0.19457537 0.57656616 1.5488188e-38
0.035867237 -0.19482081 0.57754385 1.5579667e-38
0.037077561 -0.19506654 0.57852131 1.5764058e-38
0.038168639 -0.19516613 0.57846332 1.567186e-38
0.039259717 -0.19526571 0.57840532 1.5948447e-38
0.040350787 -0.19536528 0.57834733 1.585732e-38
0.04710611 -0.20193458 0.62382692 1.5765125e-38
0.048149899 -0.20189457 0.62272972 1.5396708e-38
0.049322419 -0.20200157 0.62266737 1.641086e-38
0.050360538 -0.20196101 0.62157041 1.6779292e-38
0.051531158 -0.20206785 0.62150818 1.6779292e-38
0.052701794 -0.20217469 0.62144595 1.6687094e-38
0.053872429 -0.20228156 0.62138379 1.6687094e-38
0.055043049 -0.20238841 0.62132156 1.650343e-38
0.056213699 -0.20249525 0.62125933 1.650343e-38
0.057530105 -0.20275068 0.62223119 1.6411583e-38
0.058702625 -0.2028577 0.62216884 1.6503779e-38
0.059875146 -0.20296472 0.62210655 1.641123e-38
0.061199144 -0.20322083 0.62307793 1.641123e-38
0.062373564 -0.20332803 0.62301552 1.6411583e-38
0.063858487 -0.20373416 0.62502021 1.6411583e-38
0.065193839 -0.20399129 0.62599105 1.6226843e-38
0.066532977 -0.20424882 0.62696159 1.6226843e-38
0.068197794 -0.20480664 0.62999856 1.6227195e-38
0.069548294 -0.20506518 0.63096851 1.5766216e-38
0.070902586 -0.20532408 0.63193834 1.5489997e-38
0.07226067 -0.2055833 0.63290799 1.5305605e-38
0.073622547 -0.2058429 0.6338774 1.4476924e-38
0.074817814 -0.20595199 0.63381386 1.4015946e-38
0.076529957 -0.20651412 0.63684815 1.5307045e-38
0.077905096 -0.20677492 0.63781697 1.8810478e-38
0.079107933 -0.20688471 0.63775301 1.8994496e-38
-0.020573404 -0.19699216 0.64596379 1.6411936e-38
-0.019385803 -0.19696715 0.64485925 1.401523e-38
-0.018201988 -0.19694179 0.6437549 1.2816686e-38
-0.017021962 -0.19691607 0.64265078 1.3092543e-38
-0.015978716 -0.19621086 0.63634658 1.3461326e-38
-0.014787249 -0.19631961 0.63628322 1.346097e-38
-0.013626164 -0.19629215 0.63518006 1.3737557e-38
-0.012468869 -0.19626439 0.63407713 1.3920862e-38
-0.01134954 -0.1960997 0.6319347 1.3920862e-38
-0.010201719 -0.19607109 0.6308322 1.4012704e-38
-0.0090576857 -0.19604209 0.62972999 1.4197096e-38
-0.0079174377 -0.19601274 0.62862796 1.4288926e-38
-0.0067809783 -0.19598308 0.6275261 1.4381121e-38
-0.0056046657 -0.19609043 0.62746364 1.4381843e-38
-0.0044738911 -0.19606023 0.62636197 1.465843e-38
-0.003346907 -0.19602966 0.62526065 1.456695e-38
-0.0022237077 -0.19599876 0.62415951 1.456695e-38
-0.001155518 -0.19582945 0.62201983 1.4751339e-38
1.1324883e-05 -0.19593596 0.62195784 1.4843534e-38
0.0011231527 -0.195904 0.6208573 1.4843534e-38
0.0022311956 -0.19587176 0.61975694 1.4843534e-38
0.0033942536 -0.1959779 0.61969513 1.5027207e-38
0.0045573041 -0.19608405 0.61963332 1.5119402e-38
0.0057203621 -0.19619021 0.61957145 1.5211598e-38
0.0068189353 -0.19615707 0.61847168 1.5303794e-38
0.0079137161 -0.19612357 0.61737204 1.5303813e-38
0.0090047121 -0.19608974 0.61627257 1.5396009e-38
0.010162082 -0.19619536 0.61621106 1.5396358e-38
0.011247396 -0.19616103 0.61511189 1.5488553e-38
0.012402877 -0.19626647 0.61505049 1.5488551e-38
0.013558351 -0.19637194 0.6149891 1.5396355e-38
0.014713831 -0.19647741 0.61492765 1.5488551e-38
0.015869308 -0.19658285 0.61486626 1.5580746e-38
0.017024785 -0.19668832 0.61480486 1.5580746e-38
0.018180262 -0.19679379 0.61474347 1.5765137e-38
0.019335739 -0.19689924 0.61468202 1.585697e-38
0.020491216 -0.19700471 0.61462063 1.585697e-38
0.021557592 -0.19696862 0.61352253 1.5857336e-38
0.022711173 -0.19707391 0.61346126 1.576514e-38
0.023864754 -0.1971792 0.61339992 1.5857336e-38
0.024923552 -0.19714242 0.61230218 1.576514e-38
0.026075236 -0.19724753 0.61224097 1.5672942e-38
0.027325504 -0.19749507 0.61321598 1.6318311e-38
0.028479088 -0.19760036 0.61315471 1.6227545e-38
0.026049856 -0.19270936 0.57683283 1.6227545e-38
0.027032878 -0.19266567 0.57573915 1.5857333e-38
0.028118271 -0.19276473 0.57568145 1.4197812e-38
0.029203661 -0.19286379 0.57562381 1.4289642e-38
0.030399002 -0.19310629 0.57660168 1.4935011e-38
0.03148628 -0.19320554 0.57654387 1.5119042e-38
0.032573566 -0.19330478 0.57648611 1.5119042e-38
0.033776484 -0.19354799 0.57746369 1.530308e-38
0.034865655 -0.1936474 0.57740581 1.5395276e-38
0.036074251 -0.19389111 0.57838297 1.530308e-38
0.037165321 -0.19399069 0.57832503 1.5395276e-38
0.038256399 -0.19409028 0.57826704 1.5303083e-38
0.039347477 -0.19418986 0.57820904 1.5210887e-38
0.040565543 -0.19443442 0.57918578 1.5488178e-38
0.041658513 -0.19453417 0.57912767 1.5764765e-38
0.048244216 -0.20073837 0.62251878 1.5396345e-38
0.049416736 -0.20084538 0.62245643 1.6502693e-38
0.050454699 -0.20080671 0.62135983 1.6595625e-38
0.051625326 -0.20091355 0.6212976 1.6595625e-38
0.052795954 -0.20102039 0.62123537 1.6503781e-38
0.053966589 -0.20112723 0.62117314 1.6411586e-38
0.055137217 -0.20123407 0.62111098 1.6503426e-38
0.05630786 -0.20134091 0.62104875 1.6687817e-38
0.057624422 -0.20159449 0.62202024 1.6503781e-38
0.058796935 -0.20170151 0.6219579 1.6411586e-38
0.060119189 -0.2019556 0.62292904 1.6411234e-38
0.061293609 -0.20206279 0.62286663 1.6411234e-38
0.062621541 -0.20231742 0.62383759 1.6411583e-38
0.063953258 -0.20257235 0.62480825 1.6411583e-38
0.06528876 -0.20282766 0.62577873 1.6227206e-38
0.066628054 -0.20308331 0.62674898 1.613501e-38
0.068293326 -0.20363551 0.62978488 1.6227192e-38
0.069643974 -0.20389217 0.63075447 1.5766214e-38
0.070998423 -0.20414922 0.631724 1.5582192e-38
0.072356664 -0.20440659 0.63269329 1.5397801e-38
0.073718689 -0.2046643 0.63366234 1.4384378e-38
0.074913956 -0.2047734 0.6335988 1.4568769e-38
0.076799028 -0.20547906 0.6376645 1.5675827e-38
0.078001849 -0.20558885 0.63760054 1.9087065e-38
0.079380915 -0.20584813 0.63856864 1.8810102e-38
-0.019267678 -0.19591078 0.64568216 1.4199621e-38
-0.018105086 -0.19575384 0.64353818 1.2632295e-38
-0.016925212 -0.19573 0.64243436 1.2908152e-38
-0.015749129 -0.19570583 0.64133066 1.3461326e-38
-0.014691409 -0.19514474 0.63606888 1.3828669e-38
-0.01353048 -0.19511916 0.63496602 1.3920865e-38
-0.012373338 -0.19509326 0.63386345 1.4012692e-38
-0.011254312 -0.19493231 0.63172174 1.4012692e-38
-0.010070421 -0.19504037 0.63165879 1.3920146e-38
-0.0089246444 -0.19501343 0.63055676 1.4288928e-38
-0.0077826604 -0.19498613 0.62945497 1.4381477e-38
-0.0066444594 -0.19495851 0.62835336 1.4381477e-38
-0.0055100471 -0.19493049 0.62725198 1.4289644e-38
-0.0043794252 -0.19490217 0.62615073 1.4658427e-38
-0.0032525938 -0.1948735 0.62504971 1.4658777e-38
-0.0021295473 -0.19484445 0.62394893 1.4658777e-38
-0.0010616593 -0.19467887 0.62180996 1.475062e-38
0.00010517985 -0.19478536 0.62174791 1.4842815e-38
0.0012168586 -0.1947553 0.62064767 1.4751341e-38
0.0023247488 -0.1947249 0.61954767 1.5120124e-38
0.003487803 -0.19483104 0.61948586 1.5027923e-38
0.0046508573 -0.1949372 0.61942405 1.5120118e-38
0.0058139116 -0.19504336 0.61936224 1.5212317e-38
0.0069769695 -0.19514951 0.61930043 1.5212317e-38
0.0080734938 -0.19511807 0.61820108 1.5303808e-38
0.0091662295 -0.19508629 0.61710185 1.5396003e-38
0.010325495 -0.19519208 0.61704028 1.5396355e-38
0.01141255 -0.19515976 0.61594135 1.5488551e-38
0.012569919 -0.19526538 0.61587983 1.5488551e-38
0.013651296 -0.19523257 0.6147812 1.5488551e-38
0.01480677 -0.19533804 0.61471981 1.5304159e-38
0.015962251 -0.19544348 0.61465842 1.5580746e-38
0.017117728 -0.19554895 0.61459696 1.5673298e-38
0.018273205 -0.19565442 0.61453557 1.5765493e-38
0.019428682 -0.19575986 0.61447418 1.5765137e-38
0.020584159 -0.19586533 0.61441272 1.5765137e-38
0.021739639 -0.1959708 0.61435133 1.5857336e-38
0.022803962 -0.19593641 0.61325371 1.576514e-38
0.023957547 -0.1960417 0.61319238 1.576514e-38
0.025016189 -0.19600677 0.612095 1.576514e-38
0.026167873 -0.19611189 0.61203378 1.5672942e-38
0.027319562 -0.19621702 0.61197257 1.6410507e-38
0.028571878 -0.19646284 0.61294717 1.6411583e-38
0.029725462 -0.19656813 0.61288583 1.6411583e-38
0.030879043 -0.19667342 0.61282456 1.585697e-38
0.028418191 -0.19197693 0.57755721 1.4197449e-38
0.029507373 -0.19207634 0.57749933 1.4197799e-38
0.030596554 -0.19217575 0.57744139 1.4843169e-38
0.031685732 -0.19227515 0.57738352 1.4934651e-38
0.032774918 -0.19237457 0.57732564 1.5119042e-38
0.03397987 -0.19261608 0.57830268 1.5119405e-38
0.035070933 -0.19271564 0.57824469 1.5119405e-38
0.036162011 -0.19281523 0.57818669 1.5210885e-38
0.037374549 -0.19305745 0.57916343 1.5210885e-38
0.038467519 -0.1931572 0.57910532 1.5210885e-38
0.039560489 -0.19325694 0.5790472 1.5210885e-38
0.040653452 -0.19335671 0.57898915 1.5119042e-38
0.041746423 -0.19345646 0.57893103 1.4934651e-38
0.048338525 -0.1995822 0.62230784 1.5119039e-38
0.049511053 -0.19968921 0.62224549 1.6686365e-38
0.05068358 -0.19979623 0.6221832 1.650343e-38
0.051719487 -0.19975924 0.62108701 1.6595625e-38
0.052890114 -0.19986609 0.62102479 1.6411946e-38
0.05406075 -0.19997293 0.62096256 1.6411946e-38
0.055373676 -0.2002243 0.62193394 1.6503426e-38
0.056546204 -0.2003313 0.62187159 1.6503426e-38
0.057718731 -0.20043832 0.6218093 1.6503781e-38
0.059039228 -0.20069036 0.6227802 1.6503781e-38
0.060213648 -0.20079754 0.6227178 1.6319757e-38
0.061539851 -0.2010501 0.62368852 1.6319757e-38
0.062869817 -0.20130304 0.62465888 1.6319034e-38
0.064203575 -0.2015563 0.62562913 1.641123e-38
0.065541133 -0.20180988 0.62659913 1.6319038e-38
0.066723131 -0.20191777 0.62653631 1.6226843e-38
0.068388857 -0.20246439 0.6295712 1.5950608e-38
0.069739662 -0.20271918 0.63054049 1.5766216e-38
0.07109426 -0.20297435 0.63150966 1.5674021e-38
0.072452657 -0.20322984 0.63247859 1.5028651e-38
0.073983647 -0.20363265 0.6344794 1.4567673e-38
0.075180799 -0.20374191 0.63441581 1.4936456e-38
0.077240966 -0.20458758 0.63951194 1.6136445e-38
0.078447588 -0.2046977 0.63944781 1.899451e-38
-0.019170467 -0.19471911 0.64546478 1.4291826e-38
-0.017985072 -0.19469768 0.64436102 1.2447914e-38
-0.016803455 -0.19467586 0.64325738 1.31833e-38
-0.015625626 -0.19465372 0.64215404 1.3644278e-38
-0.014537979 -0.19423442 0.63793308 1.3736473e-38
-0.013434794 -0.19394615 0.63475204 1.3828669e-38
-0.012277804 -0.19392212 0.63364983 1.3828666e-38
-0.011090126 -0.19403052 0.6335867 1.4013058e-38
-0.0099751949 -0.19387299 0.63144583 1.4013058e-38
-0.0088295694 -0.19384789 0.63034409 1.4197449e-38
-0.0076877363 -0.19382247 0.62924266 1.4289279e-38
-0.0065496881 -0.19379672 0.6281414 1.4289279e-38
-0.0054154284 -0.19377059 0.62704039 1.4289644e-38
-0.0042849593 -0.19374411 0.62593943 1.4750623e-38
-0.0031582806 -0.1937173 0.62483877 1.4658777e-38
-0.0020353869 -0.19369015 0.62373829 1.4750973e-38
-0.00096780434 -0.19352829 0.62160003 1.475062e-38
0.00019903854 -0.19363478 0.62153798 1.475062e-38
0.0013105609 -0.19360659 0.6204381 1.4843181e-38
0.002418302 -0.19357806 0.61933845 1.5211964e-38
0.0035813563 -0.19368421 0.61927664 1.5211598e-38
0.0047444105 -0.19379036 0.61921483 1.5211598e-38
0.0059074648 -0.19389652 0.61915302 1.5120121e-38
0.007070519 -0.19400267 0.61909121 1.5212317e-38
0.0081668906 -0.19397308 0.61799216 1.5211966e-38
0.0092594773 -0.19394317 0.61689329 1.5396358e-38
0.010418743 -0.19404897 0.61683172 1.5396358e-38
0.011505645 -0.19401851 0.61573315 1.5396358e-38
0.012663014 -0.19412416 0.61567163 1.5488906e-38
0.013820387 -0.19422978 0.61561012 1.5673298e-38
0.014977761 -0.19433543 0.61554861 1.5580746e-38
0.01613513 -0.19444105 0.6154871 1.5580746e-38
0.017292503 -0.19454667 0.61542559 1.5672942e-38
0.018449873 -0.19465232 0.61536407 1.5765137e-38
0.019607246 -0.19475794 0.61530256 1.5765137e-38
0.020764619 -0.19486359 0.61524105 1.5857333e-38
0.021832578 -0.19483143 0.61414349 1.576514e-38
0.022896752 -0.19479889 0.61304617 1.576514e-38
0.024050336 -0.19490418 0.61298484 1.5856981e-38
0.025108825 -0.19487114 0.61188781 1.6041373e-38
0.02626051 -0.19497626 0.6118266 1.613392e-38
0.027412198 -0.19508138 0.61176538 1.6779289e-38
0.028563891 -0.1951865 0.61170417 1.6871835e-38
0.029715579 -0.19529161 0.61164296 1.6687444e-38
0.027939446 -0.19149946 0.58259523 1.5856604e-38
0.028612264 -0.19104227 0.57839632 1.3551714e-38
0.029703334 -0.19114186 0.57833833 1.3735757e-38
0.030794404 -0.19124144 0.57828033 1.4473322e-38
0.031885482 -0.19134103 0.57822239 1.4842087e-38
0.032976553 -0.19144061 0.5781644 1.4934282e-38
0.034067631 -0.1915402 0.5781064 1.4934285e-38
0.035158701 -0.19163977 0.57804841 1.4934285e-38
0.036369495 -0.19187994 0.57902485 1.4749188e-38
0.037462465 -0.19197971 0.5789668 1.4656992e-38
0.038555436 -0.19207945 0.57890868 1.4656992e-38
0.039648399 -0.1921792 0.57885063 1.4749188e-38
0.040741362 -0.19227897 0.57879251 1.4657359e-38
0.041834332 -0.19237871 0.57873446 1.4657359e-38
0.048432834 -0.19842601 0.6220969 1.4935011e-38
0.049605362 -0.19853301 0.62203455 1.6778924e-38
0.05077789 -0.19864003 0.62197226 1.6595621e-38
0.051950417 -0.19874705 0.62190992 1.6503426e-38
0.053122938 -0.19885406 0.62184763 1.6503781e-38
0.054295458 -0.19896108 0.62178528 1.6503781e-38
0.055467986 -0.1990681 0.621723 1.6594901e-38
0.056640513 -0.19917512 0.62166065 1.6594901e-38
0.057813041 -0.19928212 0.62159836 1.6411586e-38
0.059133701 -0.1995323 0.62256891 1.6503781e-38
0.060458146 -0.19978285 0.62353939 1.6595628e-38
0.061634474 -0.1998902 0.62347686 1.6411237e-38
0.062964588 -0.20014125 0.62444693 1.6319034e-38
0.064298503 -0.20039263 0.62541682 1.6319034e-38
0.06563621 -0.20064434 0.62638646 1.6135359e-38
0.066977702 -0.20089644 0.62735599 1.6043163e-38
0.068484388 -0.20129324 0.62935752 1.6042801e-38
0.069998629 -0.20169076 0.63135862 1.5766214e-38
0.071355276 -0.2019442 0.63232732 1.5674018e-38
0.072715722 -0.20219801 0.63329583 1.4844257e-38
0.074755818 -0.20303243 0.63839132 1.4200337e-38
0.076985724 -0.20401382 0.64451754 1.5122293e-38
0.078029059 -0.2039794 0.64342129 1.6229723e-38
0.079243258 -0.20409024 0.6433568 1.8903396e-38
-0.017888015 -0.19350785 0.64414394 1.2447904e-38
-0.016706552 -0.19348794 0.64304066 1.309182e-38
-0.015528876 -0.19346765 0.64193767 1.3460603e-38
-0.014441838 -0.19305582 0.63771808 1.3735755e-38
-0.013308268 -0.19290376 0.63557684 1.3920146e-38
-0.012149535 -0.19288173 0.63447481 1.3645344e-38
-0.010994595 -0.1928594 0.63337302 1.4014127e-38
-0.0098069143 -0.19296779 0.6333099 1.4197449e-38
-0.0086960755 -0.19281366 0.63116992 1.4197449e-38
-0.007552499 -0.19279027 0.63006866 1.4198162e-38
-0.006412711 -0.19276652 0.62896764 1.4198162e-38
-0.0052767098 -0.19274244 0.6278668 1.4197446e-38
-0.0041444972 -0.19271803 0.6267662 1.4658424e-38
-0.0030160751 -0.19269325 0.62566572 1.4658777e-38
-0.0018914416 -0.19266814 0.62456554 1.4658777e-38
-0.0007705912 -0.19264266 0.62346548 1.475062e-38
0.0002928935 -0.19248423 0.62132812 1.4842815e-38
0.0014042668 -0.19245785 0.62022853 1.4935014e-38
0.0025118515 -0.1924312 0.61912918 1.5027209e-38
0.0036749095 -0.19253734 0.61906737 1.4750985e-38
0.00483796 -0.19264349 0.61900556 1.5119768e-38
0.006001018 -0.19274965 0.61894375 1.5212314e-38
0.0071640722 -0.19285581 0.61888194 1.5212314e-38
0.0082602911 -0.1928281 0.61778331 1.5211964e-38
0.0094214529 -0.19293408 0.61772156 1.5304159e-38
0.010511991 -0.19290584 0.61662316 1.5303808e-38
0.011671256 -0.19301166 0.61656153 1.5488199e-38
0.012830522 -0.19311745 0.6164999 1.5581102e-38
0.013913482 -0.19308853 0.61540186 1.5581102e-38
0.015070852 -0.19319418 0.61534035 1.5673298e-38
0.016308323 -0.19343488 0.61631507 1.5673298e-38
0.017385598 -0.19340542 0.61521733 1.5765493e-38
0.018542968 -0.19351107 0.61515582 1.5857689e-38
0.019700341 -0.19361669 0.6150943 1.5857333e-38
0.02085771 -0.19372234 0.61503279 1.5857333e-38
0.022015084 -0.19382796 0.61497128 1.5581825e-38
0.023080997 -0.1937975 0.6138742 1.5674021e-38
0.024143126 -0.19376668 0.61277735 1.576586e-38
0.02529671 -0.19387195 0.61271602 1.5858056e-38
0.026450291 -0.19397724 0.61265469 1.5950608e-38
0.027603872 -0.19408253 0.61259341 1.6595977e-38
0.02875746 -0.19418782 0.61253208 1.6780012e-38
0.028027818 -0.19041613 0.58239758 1.5764765e-38
0.029126469 -0.1905164 0.58233923 1.3459874e-38
0.029899605 -0.19020367 0.57917678 1.3735379e-38
0.030992575 -0.19030342 0.57911867 1.4657335e-38
0.032085545 -0.19040316 0.57906061 1.4382193e-38
0.033178508 -0.19050293 0.5790025 1.4566584e-38
0.034155391 -0.19046433 0.57791013 1.484209e-38
0.035246462 -0.1905639 0.57785213 1.4657698e-38
0.036457412 -0.19080219 0.57882822 1.4472594e-38
0.03767214 -0.19104084 0.57980412 1.4472594e-38
0.038767003 -0.19114077 0.57974589 1.4656269e-38
0.039861865 -0.1912407 0.57968771 1.4656269e-38
0.040956728 -0.19134063 0.57962954 1.4657345e-38
0.042051591 -0.19144055 0.57957137 1.4749541e-38
0.043146454 -0.19154048 0.57951313 1.5119402e-38
0.049699672 -0.19737683 0.62182361 1.6871119e-38
0.050872199 -0.19748385 0.62176132 1.6871485e-38
0.052044727 -0.19759087 0.62169898 1.6687094e-38
0.053217255 -0.19769788 0.62163669 1.6503779e-38
0.054389775 -0.1978049 0.62157434 1.6503779e-38
0.055562302 -0.19791192 0.62151206 1.6687097e-38
0.05673483 -0.19801894 0.62144971 1.6594901e-38
0.058053754 -0.19826707 0.62242007 1.6595254e-38
0.059376456 -0.19851556 0.62339026 1.6595254e-38
0.060702942 -0.19876438 0.6243602 1.650343e-38
0.061881162 -0.19887191 0.62429756 1.6411234e-38
0.063213326 -0.19912127 0.62526727 1.6227557e-38
0.064393423 -0.19922897 0.62520456 1.6135362e-38
0.06573128 -0.19947883 0.62617385 1.6226839e-38
0.067072935 -0.19972906 0.62714303 1.6226839e-38
0.068741456 -0.20026462 0.63017571 1.6134996e-38
0.070421346 -0.20080124 0.63320786 1.5766214e-38
0.071616597 -0.20091033 0.63314432 1.5674018e-38
0.075320266 -0.20316477 0.64855427 1.4659866e-38
0.076205693 -0.20299007 0.64642632 1.3831906e-38
0.077254541 -0.20295805 0.64533013 1.5399232e-38
0.078472532 -0.20306921 0.6452654 1.6689619e-38
0.079690523 -0.20318037 0.64520067 1.8902314e-38
-0.017790958 -0.19231805 0.64392686 1.217133e-38
-0.016609646 -0.19229999 0.64282393 1.2814877e-38
-0.015432123 -0.19228157 0.64172125 1.3460247e-38
-0.014316596 -0.19200575 0.63854158 1.3643559e-38
-0.013212431 -0.19172889 0.63536251 1.3920146e-38
-0.012053851 -0.19170874 0.63426077 1.3828654e-38
-0.010899061 -0.19168827 0.63315934 1.4197436e-38
-0.009711381 -0.19179666 0.63309622 1.4197452e-38
-0.0086008478 -0.19164625 0.63095695 1.4105256e-38
-0.0074574221 -0.19162473 0.62985599 1.4197446e-38
-0.0063177887 -0.19160286 0.62875533 1.4289642e-38
-0.0051819384 -0.19158065 0.62765485 1.429036e-38
-0.0040498786 -0.19155809 0.62655461 1.4566947e-38
-0.0029216073 -0.19153519 0.62545443 1.4658777e-38
-0.0017971285 -0.19151194 0.6243546 1.4658777e-38
-0.00067643076 -0.19148833 0.6232549 1.4843524e-38
0.00038675219 -0.19133362 0.62111819 1.4843524e-38
0.001497969 -0.19130915 0.62001896 1.4842818e-38
0.0026054047 -0.19128436 0.61891997 1.4935014e-38
0.003768459 -0.1913905 0.61885816 1.4843184e-38
0.0049315132 -0.19149666 0.61879635 1.5119771e-38
0.0060945675 -0.19160281 0.61873454 1.5211954e-38
0.0072576217 -0.19170897 0.61867273 1.5304149e-38
0.0083536915 -0.19168311 0.61757439 1.5303443e-38
0.0095148534 -0.19178909 0.6175127 1.5395639e-38
0.010676011 -0.19189507 0.61745095 1.5487483e-38
0.011764504 -0.19186856 0.61635298 1.5579678e-38
0.01292377 -0.19197436 0.61629134 1.5488551e-38
0.014083035 -0.19208017 0.61622977 1.5488551e-38
0.015242301 -0.19218597 0.61616814 1.5581102e-38
0.016401567 -0.19229178 0.61610651 1.5673298e-38
0.017560832 -0.19239758 0.61604494 1.5765493e-38
0.018720098 -0.19250339 0.61598331 1.5857689e-38
0.019879363 -0.19260919 0.61592168 1.5857689e-38
0.021038629 -0.192715 0.6158601 1.5765493e-38
0.022108179 -0.19268674 0.61476308 1.5673295e-38
0.023173939 -0.19265813 0.6136663 1.6042077e-38
0.02432942 -0.19276357 0.6136049 1.6042077e-38
0.0253895 -0.19273445 0.61250848 1.6042077e-38
0.026543081 -0.19283974 0.61244714 1.5950252e-38
0.027696662 -0.19294503 0.61238587 1.6687817e-38
0.027120512 -0.18936779 0.58329302 1.6226843e-38
0.028116189 -0.1893328 0.58219993 1.5579652e-38
0.02921484 -0.18943307 0.58214158 1.3459152e-38
0.030096166 -0.18926173 0.58001447 1.3735376e-38
0.031191036 -0.18936166 0.57995623 1.4196354e-38
0.032285899 -0.18946159 0.57989806 1.4196004e-38
0.033266418 -0.1894252 0.57880586 1.4196004e-38
0.034359388 -0.18952495 0.57874781 1.4287849e-38
0.035452358 -0.18962471 0.57868969 1.4472241e-38
0.036665343 -0.1898613 0.5796653 1.4564424e-38
0.037760206 -0.18996122 0.57960713 1.4472228e-38
0.038855068 -0.19006115 0.57954895 1.4380395e-38
0.039949931 -0.19016108 0.57949078 1.4196004e-38
0.041044794 -0.19026101 0.57943255 1.3920149e-38
0.042139657 -0.19036093 0.57937437 1.4657714e-38
0.04323452 -0.19046086 0.5793162 1.5304159e-38
0.049793988 -0.19622064 0.62161267 1.7148072e-38
0.050966516 -0.19632766 0.62155038 1.6871841e-38
0.052139036 -0.19643468 0.62148803 1.668745e-38
0.053311564 -0.19654168 0.62142575 1.668745e-38
0.054484092 -0.1966487 0.6213634 1.668745e-38
0.055656619 -0.19675572 0.62130111 1.6779292e-38
0.056973793 -0.19700181 0.62227118 1.6594901e-38
0.058148213 -0.19710901 0.62220877 1.6595254e-38
0.059471071 -0.19735563 0.62317866 1.6595254e-38
0.060797714 -0.1976026 0.62414825 1.6411586e-38
0.061975934 -0.19771013 0.62408561 1.6411586e-38
0.063308246 -0.19795761 0.62505496 1.6319387e-38
0.064644367 -0.19820544 0.62602401 1.6227192e-38
0.065826356 -0.19831333 0.62596118 1.6227195e-38
0.067168154 -0.19856164 0.62693006 1.631939e-38
0.068837143 -0.19909163 0.62996167 1.6042801e-38
0.070026718 -0.1992002 0.62989849 1.5674018e-38
0.07419502 -0.2018465 0.64839917 1.5581822e-38
0.075418688 -0.20195818 0.64833415 1.4659866e-38
0.076642357 -0.20206986 0.64826912 1.392375e-38
0.077523701 -0.20189855 0.64614207 1.6320836e-38
0.07874357 -0.20200989 0.64607722 1.7150244e-38
0.079963453 -0.20212123 0.64601237 1.8901961e-38
-0.01767033 -0.19125438 0.64474827 1.1988002e-38
-0.016487282 -0.19123837 0.64364564 1.2907426e-38
-0.015335374 -0.1910955 0.64150488 1.34606e-38
-0.014161794 -0.1910786 0.64040262 1.3735752e-38
-0.013054298 -0.19080772 0.6372245 1.3920143e-38
-0.011925127 -0.19066277 0.63508487 1.3920852e-38
-0.010768594 -0.19064431 0.63398355 1.4013048e-38
-0.0096158497 -0.19062553 0.63288254 1.4013058e-38
-0.0084281713 -0.19073394 0.63281941 1.4289644e-38
-0.0073217303 -0.19058692 0.63068104 1.4289998e-38
-0.0061803516 -0.19056708 0.62958056 1.4474389e-38
-0.0050427616 -0.19054693 0.62848032 1.4566582e-38
-0.0039089601 -0.1905264 0.62738025 1.4658777e-38
-0.0027789474 -0.19050553 0.62628049 1.4658417e-38
-0.0016527232 -0.19048433 0.62518072 1.4842808e-38
-0.00058227032 -0.19033402 0.62304431 1.4843169e-38
0.00048060715 -0.19018304 0.62090826 1.4843169e-38
0.0015916713 -0.19016045 0.61980939 1.4935014e-38
0.002756618 -0.19026679 0.61974746 1.5027209e-38
0.0039215684 -0.19037311 0.61968559 1.5119405e-38
0.0050250627 -0.19034982 0.61858714 1.5211601e-38
0.006188117 -0.19045597 0.61852533 1.5211598e-38
0.007351175 -0.19056213 0.61846352 1.5303794e-38
0.0084470883 -0.19053815 0.61736548 1.5211601e-38
0.0096082538 -0.19064413 0.61730379 1.5488188e-38
0.010769412 -0.19075011 0.6172421 1.5396355e-38
0.011857748 -0.19072545 0.61614442 1.5488551e-38
0.013017014 -0.19083124 0.61608279 1.5580383e-38
0.014176283 -0.19093706 0.61602122 1.5672579e-38
0.015335545 -0.19104286 0.61595958 1.5581099e-38
0.016494814 -0.19114867 0.61589795 1.5673295e-38
0.01765408 -0.19125447 0.61583638 1.5765493e-38
0.018813346 -0.19136028 0.61577475 1.5857689e-38
0.019972611 -0.19146608 0.61571312 1.5949885e-38
0.021131877 -0.19157189 0.61565155 1.5857689e-38
0.022291146 -0.19167769 0.61558992 1.5949163e-38
0.023358643 -0.19165111 0.61449337 1.6133554e-38
0.024422362 -0.19162419 0.613397 1.6042075e-38
0.025577836 -0.19172964 0.61333561 1.6042075e-38
0.026733316 -0.19183511 0.61327422 1.5858772e-38
0.02788879 -0.19194058 0.61321282 1.6411946e-38
0.026310954 -0.18844861 0.5852223 1.6780012e-38
0.027209036 -0.18828258 0.58309501 1.6226839e-38
0.028309584 -0.18838303 0.58303654 1.5395982e-38
0.029410131 -0.18848348 0.58297807 1.3183287e-38
0.030401863 -0.18844998 0.58188552 1.3273682e-38
0.031500511 -0.18855026 0.58182716 1.373466e-38
0.032486565 -0.18851626 0.58073497 1.4195278e-38
0.033468828 -0.18848193 0.57964289 1.4103083e-38
0.034447305 -0.18844721 0.57855117 1.4103443e-38
0.035540268 -0.18854697 0.57849306 1.4195638e-38
0.036753409 -0.18878171 0.57946837 1.4195994e-38
0.037848271 -0.18888164 0.57941014 1.428819e-38
0.038943134 -0.18898156 0.57935196 1.4287834e-38
0.040037997 -0.18908149 0.57929379 1.4195638e-38
0.041005112 -0.18904574 0.57820261 1.3920133e-38
0.042098083 -0.18914549 0.57814455 1.5118676e-38
0.043191046 -0.18924525 0.57808644 1.5304887e-38
0.049888305 -0.19506447 0.62140173 1.6687821e-38
0.051060833 -0.19517149 0.62133944 1.6871841e-38
0.052233353 -0.19527851 0.62127709 1.668745e-38
0.053405873 -0.19538552 0.62121481 1.668745e-38
0.054719418 -0.19562939 0.62218475 1.668745e-38
0.055893831 -0.19573657 0.62212235 1.6411583e-38
0.057068251 -0.19584376 0.62205988 1.6411583e-38
0.058389373 -0.19608834 0.62302959 1.6503058e-38
0.05971428 -0.19633326 0.62399888 1.6503058e-38
0.060892485 -0.19644079 0.6239363 1.631939e-38
0.062223069 -0.19668624 0.62490535 1.631939e-38
0.063403167 -0.19679394 0.62484264 1.6319387e-38
0.064739443 -0.1970399 0.6258114 1.6319387e-38
0.06607949 -0.19728622 0.62677997 1.6135359e-38
0.067263387 -0.19739425 0.62671703 1.6135359e-38
0.068932824 -0.19791862 0.62974769 1.5766579e-38
0.071104847 -0.19886085 0.63587099 1.5674384e-38
0.073299624 -0.19980517 0.64199311 1.5857689e-38
0.074511923 -0.19991583 0.64192867 1.4751341e-38
0.075724229 -0.20002647 0.64186424 1.3463474e-38
0.077450484 -0.20055601 0.64489186 1.650593e-38
0.078668475 -0.20066717 0.64482713 1.7887795e-38
-0.01750195 -0.19043559 0.64764553 1.1895079e-38
-0.016390227 -0.19004855 0.64342856 1.281523e-38
-0.015238624 -0.18990946 0.64128852 1.34606e-38
-0.014065195 -0.18989442 0.64018661 1.3643556e-38
-0.012958156 -0.18962911 0.63700944 1.3735752e-38
-0.011829291 -0.1894879 0.63487053 1.3827947e-38
-0.01067291 -0.18947133 0.63376957 1.4012339e-38
-0.0094833374 -0.18957992 0.63370633 1.3920862e-38
-0.0083326381 -0.18956281 0.63260579 1.4289644e-38
-0.0072265025 -0.18941951 0.63046801 1.4289995e-38
-0.0060852747 -0.18940157 0.62936789 1.438219e-38
-0.0049478393 -0.18938327 0.62826806 1.4474386e-38
-0.0037677363 -0.18949097 0.6282053 1.4474386e-38
-0.0026359819 -0.18947217 0.62710571 1.4658064e-38
-0.0015080161 -0.18945298 0.62600631 1.4842455e-38
-0.00043597817 -0.1893066 0.62387043 1.4842808e-38
0.00068251789 -0.18928656 0.6227715 1.4842808e-38
0.0016853735 -0.18901174 0.61959982 1.4934298e-38
0.0028503239 -0.18911807 0.61953789 1.5026493e-38
0.0040152706 -0.18922439 0.61947596 1.5027207e-38
0.0051186159 -0.18920296 0.61837786 1.5119402e-38
0.0062816702 -0.18930912 0.61831605 1.5211598e-38
0.0074447244 -0.18941528 0.61825424 1.5211598e-38
0.0086077787 -0.18952142 0.61819243 1.5303433e-38
0.009770833 -0.18962757 0.61813062 1.558002e-38
0.010862809 -0.18960512 0.61703318 1.558002e-38
0.01202397 -0.18971111 0.61697149 1.5487825e-38
0.013185132 -0.18981709 0.61690974 1.5579664e-38
0.014269531 -0.18979394 0.61581266 1.567186e-38
0.015428793 -0.18989974 0.61575103 1.5580383e-38
0.01666861 -0.19013502 0.61672461 1.5672579e-38
0.017829772 -0.19024099 0.61666292 1.5580746e-38
0.01899093 -0.19034697 0.61660117 1.5672942e-38
0.020152092 -0.19045295 0.61653948 1.5857686e-38
0.02131325 -0.19055893 0.61647779 1.5949882e-38
0.022474412 -0.1906649 0.61641604 1.585697e-38
0.023543656 -0.19064039 0.61531973 1.5949166e-38
0.024609111 -0.1906155 0.61422366 1.5949885e-38
0.025766481 -0.19072115 0.61416215 1.604208e-38
0.02692385 -0.19082677 0.61410064 1.5858409e-38
0.028081223 -0.19093239 0.61403912 1.6503779e-38
0.026399784 -0.18735966 0.58502364 1.6871838e-38
0.027504116 -0.18746045 0.58496493 1.5949882e-38
0.028398104 -0.18729782 0.58283854 1.5302702e-38
0.029498652 -0.18739827 0.58278006 1.281342e-38
0.030599192 -0.18749872 0.58272159 1.308894e-38
0.03158889 -0.18746693 0.58162951 1.373431e-38
0.032687537 -0.1875672 0.5815711 1.4103433e-38
0.033671536 -0.1875349 0.58047938 1.4103433e-38
0.034768291 -0.187635 0.58042109 1.4103796e-38
0.035865054 -0.18773511 0.5803628 1.4103796e-38
0.037082136 -0.1879683 0.58133757 1.4195628e-38
0.038058564 -0.18793529 0.58024621 1.4287824e-38
0.039155319 -0.1880354 0.58018792 1.4195628e-38
0.040378086 -0.18826911 0.58116239 1.373465e-38
0.041093022 -0.187968 0.57800603 1.3551348e-38
0.042185992 -0.18806775 0.57794791 1.5303065e-38
0.043278962 -0.18816751 0.5778898 1.5397082e-38
0.050116204 -0.19404258 0.62222314 1.650343e-38
0.051290624 -0.19414978 0.62216073 1.6779645e-38
0.052465044 -0.19425696 0.62209827 1.668745e-38
0.053639464 -0.19436415 0.62203586 1.668745e-38
0.054813884 -0.19447134 0.62197345 1.6595254e-38
0.055988304 -0.19457853 0.62191105 1.6595251e-38
0.057307683 -0.19482106 0.62288046 1.6503056e-38
0.058630832 -0.19506395 0.62384957 1.6227192e-38
0.059809051 -0.19517151 0.62378693 1.6227192e-38
0.061137885 -0.19541487 0.6247558 1.6227195e-38
0.06231799 -0.19552258 0.62469304 1.6227195e-38
0.063652523 -0.19576651 0.62566155 1.6410863e-38
0.064834513 -0.19587436 0.62559873 1.6503058e-38
0.066174723 -0.1961188 0.62656701 1.6227192e-38
0.067678832 -0.19650033 0.62856603 1.6134996e-38
0.069352515 -0.19701943 0.63159543 1.585806e-38
0.071201451 -0.19767667 0.63565493 1.585806e-38
0.072568186 -0.19792354 0.63662183 1.5673665e-38
0.074274071 -0.19844556 0.63964945 1.4382926e-38
0.075821742 -0.19883107 0.64164615 1.3187616e-38
0.077548452 -0.19935501 0.64467275 1.6598854e-38
0.078766443 -0.19946617 0.64460802 1.8809729e-38
-0.017404284 -0.18923828 0.64742708 1.1711051e-38
-0.016267397 -0.18898135 0.6442492 1.2723025e-38
-0.015141871 -0.18872339 0.64107209 1.3552786e-38
-0.013968598 -0.18871021 0.63997054 1.3644265e-38
-0.012862016 -0.18845052 0.63679445 1.3736461e-38
-0.011733454 -0.18831304 0.63465613 1.3829017e-38
-0.010577224 -0.18829831 0.63355553 1.3921212e-38
-0.0093876515 -0.1884069 0.63349235 1.4013411e-38
-0.0082371067 -0.1883917 0.63239211 1.4197802e-38
-0.0071312748 -0.18825212 0.63025504 1.4106322e-38
-0.005947385 -0.18836018 0.6301921 1.4290714e-38
-0.004852917 -0.18821961 0.62805575 1.4290714e-38
-0.0036728159 -0.18832731 0.62799299 1.4382909e-38
-0.0025412124 -0.18831035 0.62689376 1.4565866e-38
-0.0014133975 -0.18829307 0.62579471 1.4750257e-38
-0.0002893731 -0.18827541 0.62469578 1.475026e-38
0.00077667832 -0.18813226 0.62256086 1.4842455e-38
0.0018351637 -0.18798837 0.62042642 1.4934651e-38
0.0029440299 -0.18796936 0.61932832 1.5119042e-38
0.0041089766 -0.18807568 0.61926639 1.5027207e-38
0.0052739233 -0.188182 0.61920452 1.5211598e-38
0.0063752197 -0.18816228 0.61810684 1.5303431e-38
0.0075382777 -0.18826844 0.61804503 1.5303431e-38
0.0087013282 -0.18837458 0.61798322 1.5211954e-38
0.0098643824 -0.18848073 0.61792141 1.5488541e-38
0.010956209 -0.18846014 0.61682427 1.5487825e-38
0.012117367 -0.18856613 0.61676258 1.558002e-38
0.013278533 -0.18867211 0.61670089 1.5579664e-38
0.014439691 -0.18877809 0.61663914 1.567186e-38
0.015600849 -0.18888406 0.61657745 1.558038e-38
0.016762011 -0.18899004 0.6165157 1.5764772e-38
0.017923169 -0.18909602 0.61645401 1.5397431e-38
0.019084331 -0.189202 0.61639231 1.5489627e-38
0.020245489 -0.18930797 0.61633056 1.5674021e-38
0.021494929 -0.18954225 0.61730325 1.5766216e-38
0.022567809 -0.18951993 0.61620718 1.5857689e-38
0.0236369 -0.18949729 0.61511117 1.5857689e-38
0.024796166 -0.18960309 0.6150496 1.5857689e-38
0.025955435 -0.1897089 0.61498797 1.604208e-38
0.027212448 -0.18994385 0.6159603 1.6042431e-38
0.02837361 -0.19004983 0.61589861 1.6595604e-38
0.02648861 -0.18627071 0.58482498 1.6871488e-38
0.027592942 -0.18637151 0.58476627 1.576514e-38
0.028591953 -0.18634246 0.58367401 1.4565503e-38
0.029694393 -0.18644308 0.58361542 1.2629394e-38
0.030796833 -0.1865437 0.58355683 1.2996735e-38
0.031788267 -0.18651393 0.58246505 1.3642104e-38
0.032775901 -0.18648386 0.58137345 1.364282e-38
0.033874556 -0.18658413 0.58131504 1.3827212e-38
0.034973212 -0.1866844 0.58125669 1.3735016e-38
0.036071859 -0.18678468 0.58119828 1.3550625e-38
0.03729099 -0.18701617 0.58217263 1.3549906e-38
0.038269155 -0.18698522 0.58108151 1.3734297e-38
0.039367802 -0.18708549 0.5810231 1.3734297e-38
0.040592626 -0.18731751 0.58199716 1.345771e-38
0.041693173 -0.18741795 0.58193868 1.3182568e-38
0.042793714 -0.1875184 0.58188015 1.5579655e-38
0.04903625 -0.19277734 0.62207425 1.558112e-38
0.050210677 -0.19288452 0.62201184 1.6595272e-38
0.05138509 -0.19299172 0.62194943 1.668745e-38
0.05255951 -0.1930989 0.62188703 1.6503058e-38
0.05373393 -0.19320609 0.62182462 1.641123e-38
0.05490835 -0.19331329 0.62176216 1.6319034e-38
0.056225978 -0.19355381 0.62273133 1.6503056e-38
0.057402305 -0.19366115 0.62266886 1.6503056e-38
0.058725603 -0.19390216 0.62363762 1.641086e-38
0.059903823 -0.19400969 0.62357497 1.641086e-38
0.061232805 -0.19425124 0.62454349 1.6410863e-38
0.06241291 -0.19435894 0.62448078 1.6318667e-38
0.063747592 -0.194601 0.62544894 1.6410863e-38
0.065086059 -0.19484338 0.62641692 1.6503058e-38
0.066745043 -0.19535549 0.62944615 1.6135352e-38
0.067934617 -0.19546406 0.62938291 1.6135352e-38
0.069610663 -0.19597776 0.63241124 1.5949529e-38
0.071298048 -0.19649246 0.63543886 1.6041724e-38
0.072664939 -0.19673747 0.63640541 1.5949885e-38
0.074371286 -0.19725388 0.63943207 1.4290363e-38
0.0755798 -0.19736418 0.63936782 1.3095064e-38
0.077646427 -0.198154 0.64445364 1.7797041e-38
0.078864418 -0.19826517 0.64438891 1.871899e-38
-0.018498687 -0.18805057 0.64831072 1.6227555e-38
-0.017282594 -0.18816155 0.64824611 1.1617773e-38
-0.016118348 -0.18803111 0.64610666 1.2446801e-38
-0.015017306 -0.18765819 0.64189297 1.3829735e-38
-0.013871998 -0.18752602 0.63975447 1.3828654e-38
-0.01273427 -0.18739314 0.63761646 1.3828654e-38
-0.011637617 -0.18713817 0.63444179 1.3920849e-38
-0.01048154 -0.18712533 0.63334155 1.3920849e-38
-0.0092919655 -0.18723391 0.63327831 1.4012339e-38
-0.0081415735 -0.18722056 0.63217843 1.4104534e-38
-0.0069538932 -0.18732895 0.6321153 1.4197436e-38
-0.0058521573 -0.18719277 0.62997913 1.4197436e-38
-0.0047131293 -0.1871784 0.62887979 1.4105606e-38
-0.0035778917 -0.18716365 0.62778074 1.4289998e-38
-0.0024464428 -0.18714857 0.6266818 1.4473673e-38
-0.0013187788 -0.18713313 0.62558311 1.4658064e-38
-0.00014246255 -0.18724051 0.62552059 1.4658064e-38
0.00092517585 -0.18710124 0.6233862 1.4658064e-38
0.0019290186 -0.18683779 0.62021649 1.4657711e-38
0.0030958615 -0.18694431 0.6201545 1.5026493e-38
0.0042026788 -0.18692696 0.61905682 1.502756e-38
0.0053676292 -0.18703328 0.61899495 1.5211951e-38
0.0064687729 -0.18701543 0.61789757 1.5211954e-38
0.0076318309 -0.18712159 0.61783576 1.5211954e-38
0.0087948814 -0.18722773 0.61777395 1.5211598e-38
0.0099579357 -0.18733388 0.61771214 1.5395989e-38
0.011049606 -0.18731517 0.61661541 1.5395273e-38
0.012210768 -0.18742116 0.61655366 1.5487469e-38
0.01337193 -0.18752714 0.61649197 1.5487472e-38
0.014533088 -0.18763311 0.61643022 1.5579667e-38
0.015694249 -0.18773909 0.61636853 1.5396355e-38
0.016855411 -0.18784507 0.61630684 1.5672942e-38
0.018016569 -0.18795104 0.61624509 1.5581099e-38
0.019177727 -0.18805702 0.6161834 1.5581099e-38
0.020338889 -0.188163 0.61612171 1.576514e-38
0.021588482 -0.1883954 0.61709404 1.5857336e-38
0.022661209 -0.18837495 0.61599827 1.5857333e-38
0.023730148 -0.18835418 0.61490262 1.5765137e-38
0.024889413 -0.18845998 0.61484104 1.5857333e-38
0.026048683 -0.18856579 0.61477941 1.613392e-38
0.027305849 -0.18879887 0.61575139 1.5950588e-38
0.028467011 -0.18890485 0.61568969 1.6503762e-38
0.026577439 -0.18518177 0.58462632 1.6963683e-38
0.027681772 -0.18528256 0.58456761 1.5304162e-38
0.028786104 -0.18538335 0.5845089 1.4380748e-38
0.02978307 -0.18535599 0.58341712 1.244464e-38
0.03088551 -0.18545662 0.58335853 1.2720148e-38
0.031876788 -0.18542872 0.58226711 1.3088931e-38
0.032977335 -0.18552917 0.58220857 1.3458063e-38
0.034077875 -0.18562962 0.5821501 1.3550259e-38
0.035178423 -0.18573007 0.58209163 1.3366234e-38
0.036278971 -0.18583052 0.58203316 1.3181842e-38
0.037500143 -0.18606032 0.58300698 1.3273685e-38
0.038602583 -0.18616095 0.58294839 1.3458076e-38
0.039705023 -0.18626156 0.5828898 1.3550622e-38
0.040681146 -0.1862323 0.58179915 1.3274035e-38
0.041781694 -0.18633275 0.58174068 1.2814865e-38
0.042882234 -0.1864332 0.58168221 1.5580734e-38
0.043982781 -0.18653364 0.58162367 1.6410155e-38
0.050305136 -0.19172648 0.62180054 1.6963329e-38
0.051479556 -0.19183367 0.62173814 1.6503053e-38
0.052653976 -0.19194086 0.62167573 1.6503053e-38
0.053967975 -0.19217914 0.62264478 1.6411234e-38
0.055144288 -0.19228649 0.62258226 1.6226843e-38
0.0563206 -0.19239387 0.62251973 1.6319743e-38
0.057642169 -0.19263285 0.62348825 1.6319743e-38
0.058820374 -0.19274038 0.6234256 1.641086e-38
0.060147621 -0.19297987 0.62439388 1.6595251e-38
0.061327733 -0.19308758 0.62433118 1.641086e-38
0.062660672 -0.19332758 0.6252991 1.641086e-38
0.063997395 -0.1935679 0.62626684 1.6410863e-38
0.065651156 -0.19407393 0.62929535 1.6318667e-38
0.066999249 -0.19431534 0.63026249 1.6318662e-38
0.068351127 -0.19455707 0.63122946 1.6410857e-38
0.069869094 -0.19493231 0.63322634 1.604208e-38
0.071394645 -0.19530827 0.63522285 1.5949885e-38
0.072761692 -0.1955514 0.63618904 1.548999e-38
0.074300505 -0.19592851 0.63818485 1.3922664e-38
0.075677 -0.19617251 0.63915044 1.3556062e-38
0.078259744 -0.19735506 0.64732349 1.7981452e-38
-0.01840087 -0.18685144 0.64809197 1.6504142e-38
-0.017184777 -0.18696243 0.64802736 1.189436e-38
-0.016020834 -0.18683571 0.64588857 1.2446798e-38
-0.014920402 -0.18647024 0.64167625 1.3645341e-38
-0.013745535 -0.186461 0.64057541 1.3828666e-38
