# .PCD v0.7 - Point Cloud Data file format
VERSION 0.7
FIELDS x y z rgb
SIZE 4 4 4 4
TYPE F F F F
COUNT 1 1 1 1
WIDTH 971
HEIGHT 1
VIEWPOINT 0 0 0 1 0 0 0
POINTS 971
DATA ascii
0.022261906 -0.23241431 0.93500006 8.7579038e-39
0.024042858 -0.23241431 0.93500006 6.8217956e-39
0.025906667 -0.23316 0.93800002 4.8882223e-39
0.027752383 -0.23365715 0.94000006 1.7519024e-38
0.029888572 -0.23639144 0.95100003 1.9730281e-38
0.031800002 -0.23713715 0.95400006 1.6595635e-38
0.033687621 -0.23763429 0.95600003 1.3738231e-38
0.035508573 -0.23763429 0.95600003 2.0191925e-38
0.037446667 -0.23838001 0.95900005 2.2219884e-38
0.039396197 -0.23912573 0.96200007 1.9269625e-38
-0.038014285 -0.21879333 0.88700002 1.3829723e-38
-0.036324766 -0.21879333 0.88700002 9.3165118e-39
-0.034557145 -0.21830001 0.88500005 4.7532044e-42
-0.032871433 -0.21830001 0.88500005 2.026939e-39
-0.031185716 -0.21830001 0.88500005 3.1332866e-39
-0.029500002 -0.21830001 0.88500005 3.6853239e-39
-0.027814288 -0.21830001 0.88500005 3.5009326e-39
-0.026187621 -0.21879333 0.88700002 3.1321529e-39
-0.024498096 -0.21879333 0.88700002 2.6711748e-39
-0.022808572 -0.21879333 0.88700002 2.3024315e-39
-0.021166669 -0.21928668 0.88900006 2.7634096e-39
-0.019517142 -0.21978001 0.89100003 8.3686175e-39
-0.017820001 -0.21978001 0.89100003 1.0396921e-38
-0.016122857 -0.21978001 0.89100003 1.1308425e-38
-0.014474287 -0.22052002 0.89400005 1.0478665e-38
-0.012771429 -0.22052002 0.89400005 1.0295355e-38
-0.011093334 -0.22101334 0.89600003 1.167829e-38
-0.0093866661 -0.22101334 0.89600003 1.1317451e-38
-0.0076800003 -0.22101334 0.89600003 1.5374059e-38
-0.0059866668 -0.22150669 0.89800006 1.4275994e-38
-0.0043142857 -0.22348 0.90600002 9.4818216e-39
-0.0025942859 -0.22397335 0.90800005 6.9817594e-39
-0.00087428576 -0.22644001 0.91800004 6.7973681e-39
0.00087428576 -0.22644001 0.91800004 7.536298e-39
0.0026285714 -0.22693333 0.92000002 8.0894718e-39
0.0043809521 -0.22693333 0.92000002 8.1816801e-39
0.0061533335 -0.22767334 0.92300004 8.458267e-39
0.0079285717 -0.22816667 0.92500007 7.3580333e-39
0.009721905 -0.22890668 0.92800003 6.3438813e-39
0.011489524 -0.22890668 0.92800003 5.4273579e-39
0.013257143 -0.22890668 0.92800003 5.5195535e-39
0.015105714 -0.23014 0.93300003 3.5927779e-39
0.016882857 -0.23014 0.93300003 2.3942347e-39
0.018700002 -0.23063333 0.93500006 5.3440815e-39
0.020480953 -0.23063333 0.93500006 8.6631242e-39
0.022261906 -0.23063333 0.93500006 8.7571681e-39
0.024042858 -0.23063333 0.93500006 6.4522774e-39
0.025906667 -0.23137332 0.93800002 2.135342e-39
0.027752383 -0.23186669 0.94000006 1.7808551e-38
0.029794287 -0.23384 0.94800007 2.1208258e-38
0.031800002 -0.23532002 0.95400006 1.4293588e-38
0.033687621 -0.23581333 0.95600003 1.11616e-38
0.03562 -0.23655334 0.95900005 2.1764071e-38
0.037446667 -0.23655334 0.95900005 2.2773049e-38
0.039396197 -0.23729335 0.96200007 1.8716442e-38
0.04144286 -0.23852669 0.96700007 1.5677573e-38
-0.039703812 -0.21710381 0.88700002 1.761083e-38
-0.038014285 -0.21710381 0.88700002 1.3462026e-38
-0.036324766 -0.21710381 0.88700002 9.4083417e-39
-0.034557145 -0.21661429 0.88500005 7.2878422e-39
-0.032871433 -0.21661429 0.88500005 7.0087372e-39
-0.031185716 -0.21661429 0.88500005 5.810194e-39
-0.029500002 -0.21661429 0.88500005 5.5317378e-39
-0.027877143 -0.21710381 0.88700002 5.8083247e-39
-0.026187621 -0.21710381 0.88700002 5.5303057e-39
-0.024498096 -0.21710381 0.88700002 5.1615231e-39
-0.022860002 -0.21759336 0.88900006 6.5391004e-39
-0.021166669 -0.21759336 0.88900006 8.9361868e-39
-0.019473333 -0.21759336 0.88900006 1.0493751e-38
-0.017820001 -0.21808288 0.89100003 8.5576428e-39
-0.016122857 -0.21808288 0.89100003 1.0478677e-38
-0.014425715 -0.21808288 0.89100003 1.020209e-38
-0.012771429 -0.21881714 0.89400005 9.8325792e-39
-0.011068572 -0.21881714 0.89400005 1.2598448e-38
-0.0093866661 -0.21930666 0.89600003 1.4179809e-38
-0.0076971436 -0.2197962 0.89800006 1.9342764e-38
-0.0060399999 -0.2217543 0.90600002 1.7875535e-38
-0.0043142857 -0.2217543 0.90600002 1.5755035e-38
-0.0025942859 -0.22224383 0.90800005 1.2988832e-38
-0.00087428576 -0.22469144 0.91800004 6.5351376e-39
0.00087428576 -0.22469144 0.91800004 6.4324308e-39
0.0026371428 -0.22591525 0.92300004 6.8934047e-39
0.0043952381 -0.22591525 0.92300004 7.9043897e-39
0.0061666667 -0.22640479 0.92500007 8.088781e-39
0.0079542855 -0.22713904 0.92800003 7.8150429e-39
0.009721905 -0.22713904 0.92800003 7.6306517e-39
0.011489524 -0.22713904 0.92800003 5.8872318e-39
0.013328572 -0.22836286 0.93300003 5.5184493e-39
0.015105714 -0.22836286 0.93300003 3.9586864e-39
0.016882857 -0.22836286 0.93300003 3.313317e-39
0.018700002 -0.22885239 0.93500006 4.4239581e-39
0.020480953 -0.22885239 0.93500006 7.189827e-39
0.022261906 -0.22885239 0.93500006 5.717983e-39
0.024119999 -0.22958668 0.93800002 5.8101786e-39
0.025906667 -0.22958668 0.93800002 1.0137638e-38
0.027752383 -0.23007621 0.94000006 2.286058e-38
0.029794287 -0.2320343 0.94800007 2.2956359e-38
0.031800002 -0.23350286 0.95400006 1.4013383e-38
0.033793334 -0.23472668 0.95900005 1.1434801e-38
0.03562 -0.23472668 0.95900005 2.2221678e-38
0.037563812 -0.23546097 0.96200007 2.2957078e-38
0.039478097 -0.23595048 0.96400005 1.3276536e-38
0.04144286 -0.23668477 0.96700007 1.3647429e-38
0.043553334 -0.23815335 0.97300005 2.2590405e-38
-0.039614286 -0.21492858 0.88500005 1.7150933e-38
-0.03792857 -0.21492858 0.88500005 1.3094326e-38
-0.036242858 -0.21492858 0.88500005 8.9476999e-39
-0.034557145 -0.21492858 0.88500005 6.4584179e-39
-0.032871433 -0.21492858 0.88500005 7.376777e-39
-0.031256191 -0.2154143 0.88700002 5.5328644e-39
-0.029566666 -0.2154143 0.88700002 4.8899655e-39
-0.027877143 -0.2154143 0.88700002 4.7055743e-39
-0.026246669 -0.2159 0.88900006 5.1626021e-39
-0.024553334 -0.2159 0.88900006 5.7157759e-39
-0.022860002 -0.2159 0.88900006 8.6542259e-39
-0.021166669 -0.2159 0.88900006 1.1420095e-38
-0.019473333 -0.2159 0.88900006 1.1785572e-38
-0.017820001 -0.21638571 0.89100003 7.3601815e-39
-0.016122857 -0.21638571 0.89100003 9.92473e-39
-0.014425715 -0.21638571 0.89100003 1.0570099e-38
-0.012771429 -0.2171143 0.89400005 9.9243825e-39
-0.011068572 -0.2171143 0.89400005 1.2137078e-38
-0.009407619 -0.21808574 0.89800006 1.4456381e-38
-0.0076971436 -0.21808574 0.89800006 1.8789575e-38
-0.00612 -0.22294286 0.91800004 1.7047935e-38
-0.0043571433 -0.2222143 0.91500002 1.7232326e-38
-0.0026142858 -0.2222143 0.91500002 1.5573946e-38
-0.00087428576 -0.22294286 0.91800004 1.188612e-38
0.00087428576 -0.22294286 0.91800004 6.1606433e-39
0.0026371428 -0.22415714 0.92300004 5.0542958e-39
0.0043952381 -0.22415714 0.92300004 6.9827894e-39
0.0061866669 -0.22537144 0.92800003 7.4437675e-39
0.0079714293 -0.22585717 0.93000007 7.4451996e-39
0.0097952392 -0.22707145 0.93500006 7.9061778e-39
0.011576191 -0.22707145 0.93500006 6.4375217e-39
0.013357143 -0.22707145 0.93500006 5.4233698e-39
0.015138096 -0.22707145 0.93500006 4.5082378e-39
0.016919049 -0.22707145 0.93500006 5.0614116e-39
0.018759999 -0.2278 0.93800002 5.3430305e-39
0.020546667 -0.2278 0.93800002 5.4352262e-39
0.022333333 -0.2278 0.93800002 3.7843522e-39
0.024119999 -0.2278 0.93800002 7.4721774e-39
0.025961906 -0.22828573 0.94000006 1.3088639e-38
0.027929526 -0.22974287 0.94600004 2.2953492e-38
0.029794287 -0.23022859 0.94800007 2.3416974e-38
0.031800002 -0.23168573 0.95400006 1.2906672e-38
0.033793334 -0.23290001 0.95900005 9.9617131e-39
0.03562 -0.23290001 0.95900005 2.314246e-38
0.037563812 -0.23362859 0.96200007 2.3325494e-38
0.039478097 -0.23411429 0.96400005 1.1893236e-38
0.041571431 -0.23557143 0.97000003 1.1064742e-38
0.043553334 -0.23630001 0.97300005 2.3509712e-38
0.045639999 -0.2375143 0.97800004 2.3324778e-38
-0.039480001 -0.21252 0.88200003 1.8163283e-38
-0.037800003 -0.21252 0.88200003 1.4291067e-38
-0.036242858 -0.21324287 0.88500005 1.0973798e-38
-0.034557145 -0.21324287 0.88500005 1.3854526e-39
-0.032871433 -0.21324287 0.88500005 1.1107224e-39
-0.031185716 -0.21324287 0.88500005 1.0185268e-39
-0.029500002 -0.21324287 0.88500005 1.6613416e-39
-0.027877143 -0.21372478 0.88700002 9.2377659e-40
-0.026246669 -0.21420667 0.88900006 4.4221532e-39
-0.024553334 -0.21420667 0.88900006 1.0138282e-38
-0.022860002 -0.21420667 0.88900006 1.2066882e-38
-0.021166669 -0.21420667 0.88900006 1.1882491e-38
-0.019473333 -0.21420667 0.88900006 1.0770323e-38
-0.017820001 -0.21468857 0.89100003 5.3307804e-39
-0.016122857 -0.21468857 0.89100003 7.9922245e-39
-0.014425715 -0.21468857 0.89100003 9.7439415e-39
-0.012771429 -0.21541144 0.89400005 1.0108405e-38
-0.011068572 -0.21541144 0.89400005 1.0477188e-38
-0.009407619 -0.21637525 0.89800006 1.2705584e-38
-0.0077657145 -0.21830286 0.90600002 1.464167e-38
-0.0060533336 -0.21878478 0.90800005 1.5569131e-38
-0.0043714289 -0.2211943 0.91800004 1.8611587e-38
-0.0026228572 -0.2211943 0.91800004 1.8244711e-38
-0.00087428576 -0.2211943 0.91800004 1.6861777e-38
0.00087619049 -0.2216762 0.92000002 1.3633116e-38
0.0026371428 -0.22239906 0.92300004 5.2433141e-39
0.0044047623 -0.22288097 0.92500007 6.6147103e-39
0.0062000002 -0.22408573 0.93000007 7.2600797e-39
0.0079971431 -0.22480857 0.93300003 7.2611685e-39
0.0097952392 -0.22529049 0.93500006 7.2611685e-39
0.011576191 -0.22529049 0.93500006 6.4382224e-39
0.013357143 -0.22529049 0.93500006 5.0552879e-39
0.015186667 -0.22601335 0.93800002 3.6824176e-39
0.016973333 -0.22601335 0.93800002 5.9873083e-39
0.018759999 -0.22601335 0.93800002 5.2533685e-39
0.020546667 -0.22601335 0.93800002 3.6860427e-39
0.022333333 -0.22601335 0.93800002 2.863133e-40
0.024171429 -0.22649524 0.94000006 9.7824632e-39
0.026044762 -0.22721811 0.94300002 1.4558795e-38
0.027929526 -0.22794096 0.94600004 2.2671887e-38
0.029794287 -0.22842288 0.94800007 2.2955643e-38
0.031800002 -0.22986858 0.95400006 1.1707776e-38
0.033793334 -0.23107335 0.95900005 1.1711065e-38
0.03562 -0.23107335 0.95900005 2.2405707e-38
0.037641905 -0.23227811 0.96400005 2.3234018e-38
0.039600953 -0.23300096 0.96700007 1.1064194e-38
0.041571431 -0.2337238 0.97000003 1.263012e-38
0.043642856 -0.23492858 0.97500002 2.3048197e-38
0.045500003 -0.23492858 0.97500002 2.3138932e-38
-0.039480001 -0.21084 0.88200003 1.9821007e-38
-0.037800003 -0.21084 0.88200003 1.8714659e-38
-0.036120001 -0.21084 0.88200003 1.2819958e-38
-0.034440003 -0.21084 0.88200003 3.4160041e-39
-0.032760002 -0.21084 0.88200003 4.6427681e-40
-0.031080002 -0.21084 0.88200003 1.0174506e-39
-0.029500002 -0.21155715 0.88500005 2.3956795e-39
-0.027814288 -0.21155715 0.88500005 1.3815275e-39
-0.026246669 -0.21251334 0.88900006 4.235604e-39
-0.024553334 -0.21251334 0.88900006 1.1058081e-38
-0.022911429 -0.21299143 0.89100003 1.354164e-38
-0.021214288 -0.21299143 0.89100003 1.2250901e-38
-0.019517142 -0.21299143 0.89100003 9.8487348e-39
-0.017880002 -0.21370858 0.89400005 4.1326057e-39
-0.016122857 -0.21299143 0.89100003 7.3497096e-39
-0.014425715 -0.21299143 0.89100003 9.7467861e-39
-0.012771429 -0.21370858 0.89400005 1.0384276e-38
-0.011093334 -0.21418667 0.89600003 1.1214037e-38
-0.0094914287 -0.21657714 0.90600002 1.0022274e-38
-0.0077657145 -0.21657714 0.90600002 1.1866187e-38
-0.0060533336 -0.21705526 0.90800005 1.2521255e-38
-0.0043333336 -0.21753334 0.91000003 1.6670058e-38
-0.0026142858 -0.21872857 0.91500002 1.7966661e-38
-0.00087619049 -0.21992381 0.92000002 1.8519835e-38
0.00087619049 -0.21992381 0.92000002 1.6031336e-38
0.0026371428 -0.22064096 0.92300004 6.2585997e-39
0.0044190479 -0.22183619 0.92800003 6.9816725e-39
0.0062199999 -0.22303145 0.93300003 7.5348463e-39
0.0080142869 -0.22350954 0.93500006 6.7105255e-39
0.0097952392 -0.22350954 0.93500006 6.2495473e-39
0.011576191 -0.22350954 0.93500006 5.9758275e-39
0.013400001 -0.22422667 0.93800002 5.2382625e-39
0.015186667 -0.22422667 0.93800002 3.6806548e-39
0.016973333 -0.22422667 0.93800002 6.0777411e-39
0.018759999 -0.22422667 0.93800002 4.8853118e-39
0.020546667 -0.22422667 0.93800002 2.3960298e-39
0.022333333 -0.22422667 0.93800002 9.7272534e-41
0.024171429 -0.22470477 0.94000006 1.3742226e-38
0.026044762 -0.22542191 0.94300002 1.7515799e-38
0.027929526 -0.22613905 0.94600004 2.2309926e-38
0.029794287 -0.22661716 0.94800007 2.286345e-38
0.031800002 -0.22805144 0.95400006 1.2260952e-38
0.033793334 -0.22924668 0.95900005 1.2912119e-38
0.03562 -0.22924668 0.95900005 2.2131636e-38
0.037641905 -0.23044191 0.96400005 2.3325494e-38
0.039723814 -0.23187619 0.97000003 1.244641e-38
0.041571431 -0.23187619 0.97000003 1.4196367e-38
0.043642856 -0.23307143 0.97500002 2.3231509e-38
0.045500003 -0.23307143 0.97500002 2.314039e-38
-0.039480001 -0.20916001 0.88200003 1.8532801e-38
-0.037714288 -0.20868573 0.88000005 1.9085975e-38
-0.036038097 -0.20868573 0.88000005 1.4843609e-38
-0.034361906 -0.20868573 0.88000005 6.8225887e-39
-0.032685716 -0.20868573 0.88000005 1.4788015e-39
-0.031009525 -0.20868573 0.88000005 3.2305184e-39
-0.0294 -0.20916001 0.88200003 4.7938603e-39
-0.027720001 -0.20916001 0.88200003 4.0562952e-39
-0.026246669 -0.21082 0.88900006 6.0766453e-39
-0.024553334 -0.21082 0.88900006 1.1516187e-38
-0.022911429 -0.21129429 0.89100003 1.1790979e-38
-0.021285716 -0.21200573 0.89400005 1.0315849e-38
-0.019582856 -0.21200573 0.89400005 8.8421457e-39
-0.017880002 -0.21200573 0.89400005 2.7572341e-39
-0.016177142 -0.21200573 0.89400005 6.5228496e-39
-0.014474287 -0.21200573 0.89400005 8.2745665e-39
-0.012771429 -0.21200573 0.89400005 9.923679e-39
-0.011118095 -0.2129543 0.89800006 1.15832e-38
-0.0095123816 -0.21532573 0.90800005 1.0849921e-38
-0.0077828579 -0.21532573 0.90800005 9.5591817e-39
-0.0060533336 -0.21532573 0.90800005 9.7438896e-39
-0.0043333336 -0.2158 0.91000003 1.2970737e-38
-0.0026142858 -0.21698572 0.91500002 1.5568377e-38
-0.00087619049 -0.21817143 0.92000002 1.9164006e-38
0.00087619049 -0.21817143 0.92000002 1.7413153e-38
0.0026428571 -0.21935715 0.92500007 1.0867263e-38
0.004428572 -0.22054288 0.93000007 7.4426507e-39
0.0062199999 -0.22125429 0.93300003 7.350455e-39
0.0080142869 -0.22172859 0.93500006 6.6183354e-39
0.0097952392 -0.22172859 0.93500006 6.4339442e-39
0.011576191 -0.22172859 0.93500006 4.9645594e-39
0.013400001 -0.22244 0.93800002 4.6879725e-39
0.015186667 -0.22244 0.93800002 3.4984537e-39
0.016973333 -0.22244 0.93800002 5.3423663e-39
0.018800002 -0.22291429 0.94000006 3.6885665e-39
0.020590477 -0.22291429 0.94000006 2.2134364e-39
0.022380954 -0.22291429 0.94000006 6.1757031e-39
0.024248572 -0.22362572 0.94300002 1.6962592e-38
0.02612762 -0.22433716 0.94600004 1.9263883e-38
0.027929526 -0.22433716 0.94600004 2.2490727e-38
0.029794287 -0.22481145 0.94800007 2.0559616e-38
0.031800002 -0.2262343 0.95400006 1.1801031e-38
0.033687621 -0.22670858 0.95600003 1.5304536e-38
0.03562 -0.22742002 0.95900005 2.2680138e-38
0.037563812 -0.22813144 0.96200007 2.1389762e-38
0.039723814 -0.23002858 0.97000003 1.1709221e-38
0.041700002 -0.23074001 0.97300005 1.5027243e-38
0.043642856 -0.23121428 0.97500002 2.2495032e-38
0.045500003 -0.23121428 0.97500002 2.1755667e-38
0.047794286 -0.23334858 0.98400003 6.8199753e-39
-0.040973332 -0.20653906 0.87800002 1.3831525e-38
-0.039300956 -0.20653906 0.87800002 1.1255474e-38
-0.037628572 -0.20653906 0.87800002 1.2085235e-38
-0.035956193 -0.20653906 0.87800002 1.0240295e-38
-0.034283809 -0.20653906 0.87800002 5.8149052e-39
-0.03261143 -0.20653906 0.87800002 3.0486565e-39
-0.030939048 -0.20653906 0.87800002 4.0628085e-39
-0.029333334 -0.20700954 0.88000005 5.0718541e-39
-0.027720001 -0.20748 0.88200003 3.596724e-39
-0.026246669 -0.20912667 0.88900006 7.2708921e-39
-0.024553334 -0.20912667 0.88900006 1.2710434e-38
-0.022911429 -0.20959716 0.89100003 1.1423636e-38
-0.021333335 -0.21077335 0.89600003 9.2109408e-39
-0.019626666 -0.21077335 0.89600003 7.8355047e-39
-0.01792 -0.21077335 0.89600003 3.6867014e-39
-0.016213333 -0.21077335 0.89600003 6.3395275e-39
-0.014506667 -0.21077335 0.89600003 7.5380707e-39
-0.012800001 -0.21077335 0.89600003 9.371957e-39
-0.011155238 -0.21194953 0.90100002 1.1676848e-38
-0.0095123816 -0.21359621 0.90800005 1.1217993e-38
-0.0077828579 -0.21359621 0.90800005 1.0941406e-38
-0.0060666669 -0.21406667 0.91000003 1.0110155e-38
-0.0043571433 -0.21524286 0.91500002 1.1677474e-38
-0.0026142858 -0.21524286 0.91500002 1.261345e-38
-0.00087904767 -0.21712476 0.92300004 1.8421775e-38
0.00087904767 -0.21712476 0.92300004 1.6861752e-38
0.0026428571 -0.21759525 0.92500007 9.3017099e-39
0.004428572 -0.21877144 0.93000007 8.4575089e-39
0.0062199999 -0.21947715 0.93300003 7.4433569e-39
0.0080142869 -0.21994764 0.93500006 6.6183298e-39
0.0097952392 -0.21994764 0.93500006 6.2495473e-39
0.011613334 -0.22065334 0.93800002 4.7801584e-39
0.013400001 -0.22065334 0.93800002 4.2269846e-39
0.015186667 -0.22065334 0.93800002 2.9456317e-39
0.016973333 -0.22065334 0.93800002 4.7895443e-39
0.018800002 -0.22112381 0.94000006 2.0312256e-39
0.020590477 -0.22112381 0.94000006 4.3361163e-39
0.022380954 -0.22112381 0.94000006 9.7706236e-39
0.024248572 -0.22182953 0.94300002 1.8437013e-38
0.02612762 -0.22253524 0.94600004 1.9633391e-38
0.027988574 -0.22300573 0.94800007 1.8895826e-38
0.029888572 -0.22371143 0.95100003 1.7058291e-38
0.031800002 -0.22441715 0.95400006 1.3831444e-38
0.033687621 -0.22488762 0.95600003 1.6596357e-38
0.03562 -0.22559334 0.95900005 2.2220243e-38
0.037563812 -0.22629906 0.96200007 1.9455809e-38
0.039723814 -0.22818096 0.97000003 1.3555288e-38
0.041571431 -0.22818096 0.97000003 1.5858086e-38
0.043777145 -0.23006286 0.97800004 2.1297583e-38
0.045639999 -0.23006286 0.97800004 1.9636613e-38
0.047794286 -0.23147428 0.98400003 5.6228768e-39
-0.040833335 -0.20416668 0.87500006 1.9448748e-39
-0.03916667 -0.20416668 0.87500006 1.7647266e-39
-0.037500001 -0.20416668 0.87500006 1.2115528e-39
-0.035833336 -0.20416668 0.87500006 4.6166465e-39
-0.034166671 -0.20416668 0.87500006 7.1981241e-39
-0.032500003 -0.20416668 0.87500006 7.3789715e-39
-0.030939048 -0.20486666 0.87800002 6.3648195e-39
-0.029266668 -0.20486666 0.87800002 4.3339695e-39
-0.027720001 -0.20580001 0.88200003 4.9793389e-39
-0.026040001 -0.20580001 0.88200003 8.1925499e-39
-0.024746668 -0.20906667 0.89600003 1.178818e-38
-0.02304 -0.20906667 0.89600003 1.0688229e-38
-0.021333335 -0.20906667 0.89600003 9.8584682e-39
-0.019626666 -0.20906667 0.89600003 8.1145985e-39
-0.017960001 -0.20953333 0.89800006 8.1145985e-39
-0.016249524 -0.20953333 0.89800006 7.7336303e-39
-0.01462 -0.21070002 0.90300006 5.6131308e-39
-0.0129 -0.21070002 0.90300006 9.3709298e-39
-0.011217142 -0.2114 0.90600002 1.1030451e-38
-0.0095123816 -0.21186668 0.90800005 1.1033236e-38
-0.0078000003 -0.21233334 0.91000003 1.1217627e-38
-0.0060666669 -0.21233334 0.91000003 1.0943551e-38
-0.0043571433 -0.21350001 0.91500002 1.0021595e-38
-0.0026142858 -0.21350001 0.91500002 1.1688578e-38
-0.00087904767 -0.21536668 0.92300004 1.3348081e-38
0.00087904767 -0.21536668 0.92300004 1.2148191e-38
0.0026514288 -0.21653333 0.92800003 8.2759748e-39
0.004428572 -0.21700002 0.93000007 8.7337132e-39
0.0062333336 -0.21816668 0.93500006 7.8117569e-39
0.0080400007 -0.21886668 0.93800002 6.6183354e-39
0.0098266667 -0.21886668 0.93800002 6.1573573e-39
0.011613334 -0.21886668 0.93800002 4.7801584e-39
0.013400001 -0.21886668 0.93800002 4.6879627e-39
0.015186667 -0.21886668 0.93800002 2.5782729e-39
0.016973333 -0.21886668 0.93800002 2.1172947e-39
0.018800002 -0.21933335 0.94000006 9.2381582e-40
0.020590477 -0.21933335 0.94000006 1.2079487e-38
0.022452381 -0.22003333 0.94300002 1.5578252e-38
0.024325715 -0.22073333 0.94600004 2.0095829e-38
0.02618286 -0.22120002 0.94800007 1.8899398e-38
0.028077144 -0.2219 0.95100003 1.3275464e-38
0.029888572 -0.2219 0.95100003 1.03355e-38
0.031800002 -0.22260001 0.95400006 1.3654542e-38
0.033687621 -0.22306667 0.95600003 1.8991619e-38
0.03562 -0.22376668 0.95900005 2.2495032e-38
0.037563812 -0.22446668 0.96200007 1.9268871e-38
0.039723814 -0.22633334 0.97000003 1.5027872e-38
0.041571431 -0.22633334 0.97000003 1.751761e-38
0.043553334 -0.22703335 0.97300005 2.1113194e-38
0.045780003 -0.22890002 0.98100007 1.8529183e-38
0.047940001 -0.23030001 0.98700005 6.5437513e-39
0.04992095 -0.23076667 0.98900002 5.8072975e-39
0.051961906 -0.23146667 0.99200004 7.5590145e-39
-0.040833335 -0.20250002 0.87500006 7.004026e-39
-0.03916667 -0.20250002 0.87500006 6.9161394e-39
-0.037500001 -0.20250002 0.87500006 6.5473569e-39
-0.035833336 -0.20250002 0.87500006 7.4661154e-39
-0.034166671 -0.20250002 0.87500006 1.2075897e-38
-0.032500003 -0.20250002 0.87500006 1.1802181e-38
-0.030939048 -0.20319429 0.87800002 4.7031178e-39
-0.029266668 -0.20319429 0.87800002 4.6028955e-39
-0.027594287 -0.20319429 0.87800002 9.1204758e-39
-0.026453335 -0.20736001 0.89600003 1.0776487e-38
-0.024746668 -0.20736001 0.89600003 1.0960878e-38
-0.02304 -0.20736001 0.89600003 9.5840043e-39
-0.021333335 -0.20736001 0.89600003 9.6761999e-39
-0.019626666 -0.20736001 0.89600003 9.3124649e-39
-0.01802 -0.20851715 0.90100002 8.8514867e-39
-0.016303809 -0.20851715 0.90100002 8.4751638e-39
-0.014668572 -0.20967428 0.90600002 6.8156425e-39
-0.012942857 -0.20967428 0.90600002 9.9272888e-39
-0.011217142 -0.20967428 0.90600002 1.0203876e-38
-0.0095123816 -0.21013716 0.90800005 1.0753427e-38
-0.0078000003 -0.2106 0.91000003 1.1583188e-38
-0.0060666669 -0.2106 0.91000003 1.1126157e-38
-0.0043476191 -0.21129429 0.91300005 1.0112005e-38
-0.0026142858 -0.21175714 0.91500002 1.0478215e-38
-0.00087904767 -0.21360858 0.92300004 1.1861149e-38
0.00088095246 -0.21407145 0.92500007 1.1406331e-38
0.0026514288 -0.21476573 0.92800003 9.3780274e-39
0.004428572 -0.21522859 0.93000007 9.0099666e-39
0.0062333336 -0.21638572 0.93500006 8.0880103e-39
0.0080400007 -0.21708 0.93800002 7.0789479e-39
0.0098266667 -0.21708 0.93800002 6.0647959e-39
0.011638097 -0.21754287 0.94000006 4.8719981e-39
0.013428572 -0.21754287 0.94000006 4.5032155e-39
0.015219049 -0.21754287 0.94000006 1.7478129e-39
0.017009525 -0.21754287 0.94000006 1.4712261e-39
0.018859999 -0.21823715 0.94300002 2.2116806e-39
0.020656191 -0.21823715 0.94300002 1.6594199e-38
0.022452381 -0.21823715 0.94300002 1.788564e-38
0.024325715 -0.21893144 0.94600004 1.9452965e-38
0.026265714 -0.22008857 0.95100003 1.9174906e-38
0.028077144 -0.22008857 0.95100003 9.2177777e-39
0.029888572 -0.22008857 0.95100003 5.8089539e-39
0.031800002 -0.22078286 0.95400006 1.6872417e-38
0.033793334 -0.22194001 0.95900005 2.05575e-38
0.03562 -0.22194001 0.95900005 2.0188717e-38
0.037563812 -0.2226343 0.96200007 1.7331346e-38
0.039723814 -0.22448573 0.97000003 1.7423542e-38
0.041571431 -0.22448573 0.97000003 2.0099417e-38
0.043553334 -0.22518001 0.97300005 2.0560388e-38
0.045919999 -0.22772571 0.98400003 1.6872544e-38
0.047940001 -0.22842002 0.98700005 6.2700469e-39
0.04992095 -0.22888286 0.98900002 6.3629782e-39
0.051804762 -0.22888286 0.98900002 7.1927389e-39
-0.042500004 -0.20083335 0.87500006 7.1934816e-39
-0.040833335 -0.20083335 0.87500006 8.6686117e-39
-0.03916667 -0.20083335 0.87500006 9.1291876e-39
-0.037500001 -0.20083335 0.87500006 9.9589483e-39
-0.035833336 -0.20083335 0.87500006 1.2629745e-38
-0.034166671 -0.20083335 0.87500006 1.5026831e-38
-0.03261143 -0.2015219 0.87800002 1.2078039e-38
-0.030939048 -0.2015219 0.87800002 2.2131071e-39
-0.029266668 -0.2015219 0.87800002 4.8773805e-39
-0.027657144 -0.20198096 0.88000005 1.1976444e-38
-0.025980955 -0.20198096 0.88000005 1.1885343e-38
-0.024746668 -0.20565334 0.89600003 1.1239973e-38
-0.02304 -0.20565334 0.89600003 1.1800238e-38
-0.021333335 -0.20565334 0.89600003 1.428952e-38
-0.019626666 -0.20565334 0.89600003 1.493204e-38
-0.017960001 -0.2061124 0.89800006 1.2534954e-38
-0.016303809 -0.20680095 0.90100002 1.1784114e-38
-0.014668572 -0.20794858 0.90600002 1.040118e-38
-0.012942857 -0.20794858 0.90600002 1.1956281e-38
-0.011217142 -0.20794858 0.90600002 1.1771889e-38
-0.0095123816 -0.20840764 0.90800005 1.1678615e-38
-0.0077828579 -0.20840764 0.90800005 1.0572267e-38
-0.0060666669 -0.20886667 0.91000003 1.0662327e-38
-0.0043476191 -0.20955524 0.91300005 1.0570132e-38
-0.0026085714 -0.20955524 0.91300005 1.0570825e-38
-0.00087904767 -0.21185048 0.92300004 1.1216195e-38
0.00088095246 -0.21230954 0.92500007 1.0849576e-38
0.0026571429 -0.21345717 0.93000007 1.0112011e-38
0.0044523813 -0.21460478 0.93500006 9.4695378e-39
0.0062533333 -0.21529333 0.93800002 8.178799e-39
0.0080571435 -0.21575239 0.94000006 6.9867522e-39
0.0098476186 -0.21575239 0.94000006 6.802361e-39
0.011638097 -0.21575239 0.94000006 4.5997328e-39
0.013428572 -0.21575239 0.94000006 3.308994e-39
0.015219049 -0.21575239 0.94000006 8.2907263e-40
0.017009525 -0.21575239 0.94000006 8.1125274e-39
0.018859999 -0.21644095 0.94300002 1.1427298e-38
0.020721905 -0.21712953 0.94600004 1.9540512e-38
0.022523811 -0.21712953 0.94600004 1.9909962e-38
0.024325715 -0.21712953 0.94600004 1.9172397e-38
0.026265714 -0.21827716 0.95100003 1.7702239e-38
0.028077144 -0.21827716 0.95100003 9.2202412e-39
0.029982859 -0.21896572 0.95400006 8.3936965e-39
0.03186667 -0.21942477 0.95600003 1.7982042e-38
0.033793334 -0.22011335 0.95900005 2.0373086e-38
0.03562 -0.22011335 0.95900005 1.9174543e-38
0.037563812 -0.22080192 0.96200007 1.6962564e-38
0.039723814 -0.2226381 0.97000003 1.8529889e-38
0.041700002 -0.22332667 0.97300005 2.1204312e-38
0.043642856 -0.22378571 0.97500002 1.9729184e-38
0.046060003 -0.22654 0.98700005 1.594915e-38
0.048037145 -0.22699904 0.98900002 6.6373917e-39
0.04992095 -0.22699904 0.98900002 7.1909312e-39
0.051804762 -0.22699904 0.98900002 8.48167e-39
0.053851429 -0.22768763 0.99200004 8.3890961e-39
-0.042500004 -0.19916669 0.87500006 8.390929e-39
-0.040739998 -0.19871143 0.87300003 8.7597115e-39
-0.039077144 -0.19871143 0.87300003 8.3934303e-39
-0.037500001 -0.19916669 0.87500006 1.1620277e-38
-0.035833336 -0.19916669 0.87500006 1.2263901e-38
-0.034166671 -0.19916669 0.87500006 1.1618531e-38
-0.03261143 -0.19984953 0.87800002 8.9473047e-39
-0.030939048 -0.19984953 0.87800002 2.5858062e-39
-0.029266668 -0.19984953 0.87800002 6.9031886e-39
-0.027657144 -0.20030476 0.88000005 1.2895905e-38
-0.025980955 -0.20030476 0.88000005 1.1425807e-38
-0.024746668 -0.20394668 0.89600003 1.1794589e-38
-0.02304 -0.20394668 0.89600003 1.1618435e-38
-0.021333335 -0.20394668 0.89600003 1.4292108e-38
-0.019626666 -0.20394668 0.89600003 1.7692563e-38
-0.017960001 -0.20440191 0.89800006 1.2160825e-38
-0.016303809 -0.20508477 0.90100002 1.3522177e-38
-0.014668572 -0.20622286 0.90600002 1.2508025e-38
-0.012942857 -0.20622286 0.90600002 1.2965406e-38
-0.011217142 -0.20622286 0.90600002 1.3241993e-38
-0.0095123816 -0.20667811 0.90800005 1.186447e-38
-0.0077828579 -0.20667811 0.90800005 1.0297145e-38
-0.0060533336 -0.20667811 0.90800005 1.0570475e-38
-0.0043333336 -0.20713334 0.91000003 1.0386084e-38
-0.0026 -0.20713334 0.91000003 1.0477191e-38
-0.00088095246 -0.21054763 0.92500007 1.0753777e-38
0.00088380952 -0.21123049 0.92800003 1.0665185e-38
0.0026571429 -0.21168573 0.93000007 1.0204206e-38
0.0044523813 -0.21282382 0.93500006 9.7432506e-39
0.0062533333 -0.21350667 0.93800002 8.8212943e-39
0.0080571435 -0.21396191 0.94000006 6.802361e-39
0.0098476186 -0.21396191 0.94000006 6.3413828e-39
0.011638097 -0.21396191 0.94000006 4.5085853e-39
0.013428572 -0.21396191 0.94000006 2.0203809e-39
0.015219049 -0.21396191 0.94000006 9.2257287e-41
0.017009525 -0.21396191 0.94000006 1.3368428e-38
0.018859999 -0.21464476 0.94300002 1.4293247e-38
0.020721905 -0.21532762 0.94600004 1.8534246e-38
0.022571431 -0.21578288 0.94800007 1.944934e-38
0.024377145 -0.21578288 0.94800007 1.6591276e-38
0.026265714 -0.21646571 0.95100003 1.32804e-38
0.028077144 -0.21646571 0.95100003 8.2096402e-39
0.029982859 -0.21714859 0.95400006 8.8579958e-39
0.03186667 -0.21760382 0.95600003 1.7616581e-38
0.033793334 -0.21828668 0.95900005 1.9358947e-38
0.035731431 -0.21896954 0.96200007 1.5302339e-38
0.037563812 -0.21896954 0.96200007 1.4382084e-38
0.039723814 -0.22079048 0.97000003 2.1296756e-38
0.041700002 -0.22147334 0.97300005 2.2589377e-38
0.043642856 -0.22192858 0.97500002 1.936253e-38
0.046060003 -0.22466001 0.98700005 1.4385064e-38
0.047940001 -0.22466001 0.98700005 6.4562402e-39
0.04992095 -0.22511524 0.98900002 7.5597137e-39
0.051804762 -0.22511524 0.98900002 9.0348438e-39
0.053851429 -0.2257981 0.99200004 8.7586129e-39
-0.04240286 -0.19704857 0.87300003 8.6675201e-39
-0.040739998 -0.19704857 0.87300003 8.2065419e-39
-0.039077144 -0.19704857 0.87300003 8.7596961e-39
-0.037414286 -0.19704857 0.87300003 1.3922651e-38
-0.035751428 -0.19704857 0.87300003 1.3553182e-38
-0.034166671 -0.19750001 0.87500006 6.8229012e-39
-0.032500003 -0.19750001 0.87500006 4.2416632e-39
-0.030833337 -0.19750001 0.87500006 6.5465539e-39
-0.029266668 -0.19817714 0.87800002 9.3028141e-39
-0.027657144 -0.19862857 0.88000005 1.1331118e-38
-0.025980955 -0.19862857 0.88000005 1.133468e-38
-0.024746668 -0.20224001 0.89600003 1.493031e-38
-0.02304 -0.20224001 0.89600003 1.5483056e-38
-0.021333335 -0.20224001 0.89600003 1.5483056e-38
-0.019670477 -0.20269145 0.89800006 1.5933948e-38
-0.01802 -0.20336857 0.90100002 1.0033427e-38
-0.016340001 -0.20382002 0.90300006 1.231717e-38
-0.014668572 -0.20449714 0.90600002 1.231717e-38
-0.012971429 -0.20494859 0.90800005 1.2502653e-38
-0.011241905 -0.20494859 0.90800005 1.3424609e-38
-0.0095123816 -0.20494859 0.90800005 1.1773707e-38
-0.0077828579 -0.20494859 0.90800005 9.6532074e-39
-0.0060533336 -0.20494859 0.90800005 8.1763103e-39
-0.0043333336 -0.2054 0.91000003 7.8075278e-39
-0.0026 -0.2054 0.91000003 8.6354934e-39
-0.00088095246 -0.20878573 0.92500007 1.0018428e-38
0.00088380952 -0.20946287 0.92800003 1.0202769e-38
0.0026657144 -0.21059144 0.93300003 1.0479356e-38
0.0044523813 -0.21104287 0.93500006 1.0021983e-38
0.0062533333 -0.21172 0.93800002 9.4688091e-39
0.0080571435 -0.21217144 0.94000006 7.0785975e-39
0.0098476186 -0.21217144 0.94000006 5.6034675e-39
0.011638097 -0.21217144 0.94000006 4.0468967e-39
0.013428572 -0.21217144 0.94000006 1.9285496e-39
0.015219049 -0.21217144 0.94000006 1.8409979e-40
0.017009525 -0.21217144 0.94000006 1.5396379e-38
0.018859999 -0.21284857 0.94300002 1.8990149e-38
0.020721905 -0.21352573 0.94600004 1.9912105e-38
0.022571431 -0.21397714 0.94800007 1.8254031e-38
0.024377145 -0.21397714 0.94800007 1.0140816e-38
0.026265714 -0.2146543 0.95100003 7.7547353e-39
0.028077144 -0.2146543 0.95100003 1.2825495e-38
0.029982859 -0.21533144 0.95400006 1.6317962e-38
0.03186667 -0.21578287 0.95600003 1.9821396e-38
0.033793334 -0.21646 0.95900005 1.8621379e-38
0.035731431 -0.21713716 0.96200007 9.4018159e-39
0.037563812 -0.21713716 0.96200007 8.9412777e-39
0.039600953 -0.21826573 0.96700007 2.1018848e-38
0.041700002 -0.21962 0.97300005 2.314039e-38
0.043642856 -0.22007143 0.97500002 1.7700848e-38
0.045919999 -0.22210287 0.98400003 1.2814877e-38
0.047940001 -0.22278 0.98700005 7.0065526e-39
0.04992095 -0.22323143 0.98900002 7.4689629e-39
0.051804762 -0.22323143 0.98900002 8.5753104e-39
0.053851429 -0.22390857 0.99200004 8.667506e-39
-0.04240286 -0.19538571 0.87300003 8.206888e-39
-0.040646669 -0.19493811 0.87100005 8.4834749e-39
-0.038987622 -0.19493811 0.87100005 9.5873478e-39
-0.037328575 -0.19493811 0.87100005 1.4104934e-38
-0.035669528 -0.19493811 0.87100005 1.4105241e-38
-0.034088571 -0.19538571 0.87300003 3.8715256e-39
-0.032425717 -0.19538571 0.87300003 3.5837367e-39
-0.030833337 -0.19583334 0.87500006 9.4842529e-39
-0.029166669 -0.19583334 0.87500006 1.0501692e-38
-0.027594287 -0.19650476 0.87800002 1.1423649e-38
-0.025921905 -0.19650476 0.87800002 1.1060957e-38
-0.024746668 -0.20053335 0.89600003 1.4748783e-38
-0.02304 -0.20053335 0.89600003 1.6770945e-38
-0.021333335 -0.20053335 0.89600003 1.4834836e-38
-0.019736189 -0.20165238 0.90100002 1.4079288e-38
-0.01802 -0.20165238 0.90100002 1.0760246e-38
-0.016340001 -0.20210001 0.90300006 1.2502598e-38
-0.014668572 -0.20277143 0.90600002 1.2410402e-38
-0.012942857 -0.20277143 0.90600002 1.2042753e-38
-0.011241905 -0.20321906 0.90800005 1.296471e-38
-0.0095123816 -0.20321906 0.90800005 1.1590741e-38
-0.0077828579 -0.20321906 0.90800005 7.8107199e-39
-0.0060666669 -0.20366667 0.91000003 6.9827711e-39
-0.0043333336 -0.20366667 0.91000003 6.3374017e-39
-0.0026371428 -0.2065762 0.92300004 7.4426507e-39
-0.00088380952 -0.20769523 0.92800003 9.6553458e-39
0.00088571431 -0.20814288 0.93000007 1.0020172e-38
0.0026657144 -0.20881429 0.93300003 1.0388955e-38
0.0044523813 -0.20926192 0.93500006 1.0390791e-38
0.0062533333 -0.20993334 0.93800002 1.0851769e-38
0.0080571435 -0.21038096 0.94000006 7.6317559e-39
0.0098476186 -0.21038096 0.94000006 5.603452e-39
0.011675238 -0.21105239 0.94300002 4.0447387e-39
0.013471429 -0.21105239 0.94300002 2.3877285e-39
0.015267619 -0.21105239 0.94300002 4.5998603e-40
0.01706381 -0.21105239 0.94300002 1.6778613e-38
0.018920001 -0.21172382 0.94600004 1.9818875e-38
0.020765714 -0.21217144 0.94800007 1.908131e-38
0.022571431 -0.21217144 0.94800007 1.7699743e-38
0.024377145 -0.21217144 0.94800007 8.4801805e-39
0.026265714 -0.21284285 0.95100003 8.1170592e-39
0.028165715 -0.2135143 0.95400006 1.7981992e-38
0.029982859 -0.2135143 0.95400006 1.8806517e-38
0.03186667 -0.2139619 0.95600003 1.8714321e-38
0.033793334 -0.21463333 0.95900005 1.8434788e-38
0.035731431 -0.21530478 0.96200007 9.4918115e-39
0.037563812 -0.21530478 0.96200007 6.0842109e-39
0.039600953 -0.21642382 0.96700007 2.1112099e-38
0.041700002 -0.21776667 0.97300005 2.3325494e-38
0.043777145 -0.21888573 0.97800004 1.6687409e-38
0.045919999 -0.22022857 0.98400003 1.1615593e-38
0.047940001 -0.2209 0.98700005 7.4667894e-39
0.04992095 -0.22134763 0.98900002 7.7455441e-39
0.051804762 -0.22134763 0.98900002 8.4831092e-39
0.053851429 -0.22201906 0.99200004 9.0345047e-39
-0.04240286 -0.19372286 0.87300003 8.5760237e-39
-0.040646669 -0.19327906 0.87100005 1.1249697e-38
-0.038987622 -0.19327906 0.87100005 1.2722721e-38
-0.037242856 -0.19283524 0.86900002 1.3644677e-38
-0.03558762 -0.19283524 0.86900002 1.2356639e-38
-0.034088571 -0.19372286 0.87300003 1.3854246e-39
-0.032425717 -0.19372286 0.87300003 4.6879627e-39
-0.030833337 -0.19416668 0.87500006 9.4821355e-39
-0.029166669 -0.19416668 0.87500006 1.0775383e-38
-0.027594287 -0.19483238 0.87800002 1.3264665e-38
-0.026246669 -0.19727334 0.88900006 1.3540841e-38
-0.024608571 -0.19771715 0.89100003 1.3448645e-38
-0.02304 -0.19882667 0.89600003 1.3064827e-38
-0.021333335 -0.19882667 0.89600003 1.1958479e-38
-0.019670477 -0.19927049 0.89800006 1.167828e-38
-0.01802 -0.19993618 0.90100002 9.2811935e-39
-0.016340001 -0.20038001 0.90300006 1.0383903e-38
-0.014668572 -0.20104572 0.90600002 1.213562e-38
-0.012942857 -0.20104572 0.90600002 1.2137798e-38
-0.011241905 -0.20148954 0.90800005 1.2414385e-38
-0.0095123816 -0.20148954 0.90800005 1.0120248e-38
-0.0078000003 -0.20193332 0.91000003 6.8012077e-39
-0.0060666669 -0.20193332 0.91000003 6.254585e-39
-0.0043571433 -0.20304286 0.91500002 5.7014112e-39
-0.0026371428 -0.2048181 0.92300004 7.1696385e-39
-0.00088380952 -0.20592763 0.92800003 8.5525729e-39
0.00088571431 -0.20637144 0.93000007 9.9286859e-39
0.0026657144 -0.20703715 0.93300003 1.1588207e-38
0.0044666668 -0.20814666 0.93800002 1.094576e-38
0.0062533333 -0.20814666 0.93800002 1.0484781e-38
0.0080571435 -0.20859049 0.94000006 7.9065533e-39
0.0098476186 -0.20859049 0.94000006 5.7860538e-39
0.011638097 -0.20859049 0.94000006 3.6760038e-39
0.013471429 -0.2092562 0.94300002 2.1122655e-39
0.015316191 -0.20992191 0.94600004 5.6989491e-39
0.017118096 -0.20992191 0.94600004 2.0819032e-38
0.018920001 -0.20992191 0.94600004 2.0094719e-38
0.020765714 -0.21036573 0.94800007 1.7052264e-38
0.022571431 -0.21036573 0.94800007 1.0789459e-38
0.024377145 -0.21036573 0.94800007 6.0874816e-39
0.026265714 -0.21103144 0.95100003 1.059972e-38
0.028224763 -0.21214095 0.95600003 1.9081693e-38
0.030045714 -0.21214095 0.95600003 1.9358949e-38
0.031966668 -0.21280667 0.95900005 1.6593081e-38
0.03389905 -0.2134724 0.96200007 1.309035e-38
0.035805713 -0.2139162 0.96400005 9.4025249e-39
0.037641905 -0.2139162 0.96400005 1.1151114e-38
0.039723814 -0.21524763 0.97000003 2.0739395e-38
0.041571431 -0.21524763 0.97000003 2.1479456e-38
0.043777145 -0.21702287 0.97800004 1.5578936e-38
0.045780003 -0.21768858 0.98100007 9.8631598e-39
0.048037145 -0.21946383 0.98900002 8.2036384e-39
0.04992095 -0.21946383 0.98900002 8.4827589e-39
0.051804762 -0.21946383 0.98900002 9.0359326e-39
0.053851429 -0.22012953 0.99200004 9.2199876e-39
0.056078095 -0.22146097 0.99800003 1.1432683e-38
-0.042305715 -0.19162002 0.87100005 9.775325e-39
-0.040553335 -0.19117999 0.86900002 1.346315e-38
-0.038898095 -0.19117999 0.86900002 1.4660609e-38
-0.037242856 -0.19117999 0.86900002 1.0972784e-38
-0.03558762 -0.19117999 0.86900002 7.745865e-39
-0.034088571 -0.19206001 0.87300003 1.1077797e-39
-0.032425717 -0.19206001 0.87300003 4.5024897e-39
-0.030833337 -0.19250001 0.87500006 9.4810537e-39
-0.029166669 -0.19250001 0.87500006 1.0678152e-38
-0.027594287 -0.19316001 0.87800002 1.3997195e-38
-0.026187621 -0.19514 0.88700002 1.4917321e-38
-0.024553334 -0.19558001 0.88900006 1.2889017e-38
-0.022988571 -0.19668001 0.89400005 1.3607892e-38
-0.021333335 -0.19712001 0.89600003 1.2778131e-38
-0.019670477 -0.19756001 0.89800006 1.1036449e-38
-0.017960001 -0.19756001 0.89800006 7.1642449e-39
-0.016303809 -0.19822001 0.90100002 8.3595595e-39
-0.01462 -0.19866002 0.90300006 1.2877145e-38
-0.012942857 -0.19932 0.90600002 1.2052079e-38
-0.011241905 -0.19976002 0.90800005 9.1940145e-39
-0.0095123816 -0.19976002 0.90800005 7.9082713e-39
-0.0078000003 -0.20020001 0.91000003 6.8019252e-39
-0.0061000003 -0.20130001 0.91500002 5.7097195e-39
-0.0043714289 -0.20196001 0.91800004 5.340937e-39
-0.0026428571 -0.20350002 0.92500007 7.0807205e-39
-0.00088857143 -0.20526001 0.93300003 7.7260899e-39
0.00088857143 -0.20526001 0.93300003 9.1003868e-39
0.0026800002 -0.20636001 0.93800002 1.1036495e-38
0.0044761905 -0.20680001 0.94000006 1.0946113e-38
0.006266667 -0.20680001 0.94000006 1.0761721e-38
0.0080571435 -0.20680001 0.94000006 8.7377181e-39
0.0098476186 -0.20680001 0.94000006 5.8796536e-39
0.011638097 -0.20680001 0.94000006 3.2160472e-39
0.013428572 -0.20680001 0.94000006 2.3877229e-39
0.015316191 -0.20812002 0.94600004 6.7238939e-39
0.017118096 -0.20812002 0.94600004 1.9815659e-38
0.018960001 -0.20856002 0.94800007 2.0002911e-38
0.020765714 -0.20856002 0.94800007 1.2811651e-38
0.022642858 -0.20922001 0.95100003 8.4811516e-39
0.024454286 -0.20922001 0.95100003 1.2445547e-38
0.026348574 -0.20988001 0.95400006 1.5578239e-38
0.028224763 -0.21032001 0.95600003 1.9542651e-38
0.030140001 -0.21098 0.95900005 1.9174192e-38
0.031966668 -0.21098 0.95900005 1.1153173e-38
0.03389905 -0.21164002 0.96200007 1.0135984e-38
0.035805713 -0.21208 0.96400005 1.4653549e-38
0.037759051 -0.21274 0.96700007 1.6408729e-38
0.039600953 -0.21274 0.96700007 2.0465324e-38
0.041571431 -0.21340001 0.97000003 2.0373812e-38
0.043553334 -0.21406001 0.97300005 1.1246445e-38
0.045780003 -0.21582 0.98100007 9.4903891e-39
0.048037145 -0.21757999 0.98900002 9.4903891e-39
0.050072383 -0.21824001 0.99200004 8.9429985e-39
0.051961906 -0.21824001 0.99200004 9.0351941e-39
0.054014288 -0.21890001 0.99500006 9.4951522e-39
0.056078095 -0.21956001 0.99800003 1.1615652e-38
-0.042305715 -0.18996097 0.87100005 1.4476217e-38
-0.040553335 -0.18952477 0.86900002 1.4660609e-38
-0.038898095 -0.18952477 0.86900002 1.3646774e-38
-0.037157144 -0.18908858 0.86700004 4.8881887e-39
-0.035505716 -0.18908858 0.86700004 1.7528282e-39
-0.033854287 -0.18908858 0.86700004 9.2306753e-40
-0.032277141 -0.18952477 0.86900002 6.617234e-39
-0.030833337 -0.19083335 0.87500006 1.0673842e-38
-0.029166669 -0.19083335 0.87500006 1.2327249e-38
-0.027594287 -0.19148763 0.87800002 1.3341401e-38
-0.026187621 -0.19345048 0.88700002 1.3431053e-38
-0.024553334 -0.19388667 0.88900006 1.3338858e-38
-0.022988571 -0.19497715 0.89400005 1.2423385e-38
-0.021285716 -0.19497715 0.89400005 1.085606e-38
-0.019670477 -0.19584954 0.89800006 9.0185327e-39
-0.017960001 -0.19584954 0.89800006 5.515152e-39
-0.016303809 -0.19650382 0.90100002 9.0032431e-39
-0.01462 -0.19694002 0.90300006 1.4903763e-38
-0.012942857 -0.19759429 0.90600002 1.1685085e-38
-0.011241905 -0.19803049 0.90800005 7.4440856e-39
-0.0095123816 -0.19803049 0.90800005 6.2566631e-39
-0.0078000003 -0.19846666 0.91000003 8.8381408e-39
-0.0061000003 -0.19955714 0.91500002 7.9238299e-39
-0.0043952381 -0.2013019 0.92300004 5.7111348e-39
-0.0026514288 -0.20239238 0.92800003 6.8041588e-39
-0.00088857143 -0.20348287 0.93300003 6.6197676e-39
0.00089047622 -0.20391907 0.93500006 8.0869663e-39
0.0026800002 -0.20457333 0.93800002 8.916727e-39
0.0044761905 -0.20500953 0.94000006 9.6560492e-39
0.006266667 -0.20500953 0.94000006 1.0393614e-38
0.0080571435 -0.20500953 0.94000006 8.5540205e-39
0.0098476186 -0.20500953 0.94000006 6.2491297e-39
0.011638097 -0.20500953 0.94000006 3.4004553e-39
0.013428572 -0.20500953 0.94000006 3.2160641e-39
0.015316191 -0.2063181 0.94600004 9.763107e-39
0.017118096 -0.2063181 0.94600004 2.0549985e-38
0.018960001 -0.2067543 0.94800007 1.8989756e-38
0.020765714 -0.2067543 0.94800007 4.5150425e-39
0.022642858 -0.20740858 0.95100003 7.9269422e-39
0.024454286 -0.20740858 0.95100003 1.8621635e-38
0.026348574 -0.20806287 0.95400006 2.0186537e-38
0.028224763 -0.20849906 0.95600003 2.0094341e-38
0.030140001 -0.20915334 0.95900005 1.7699766e-38
0.031966668 -0.20915334 0.95900005 5.3455515e-39
0.03389905 -0.20980763 0.96200007 6.3544051e-39
0.035805713 -0.21024382 0.96400005 1.806325e-38
0.037759051 -0.2108981 0.96700007 2.0463489e-38
0.039600953 -0.2108981 0.96700007 2.0186902e-38
0.041571431 -0.21155238 0.97000003 1.87149e-38
0.043553334 -0.21220668 0.97300005 5.5309362e-39
0.045780003 -0.21395144 0.98100007 6.0831291e-39
0.04818286 -0.21635048 0.99200004 9.0333893e-39
0.050072383 -0.21635048 0.99200004 8.3919729e-39
0.051961906 -0.21635048 0.99200004 8.5763642e-39
0.054014288 -0.21700478 0.99500006 9.8646661e-39
0.056078095 -0.21765906 0.99800003 1.189297e-38
-0.040553335 -0.18786952 0.86900002 1.291104e-38
-0.038898095 -0.18786952 0.86900002 7.9375178e-39
-0.037157144 -0.18743715 0.86700004 2.0369975e-39
-0.035505716 -0.18743715 0.86700004 3.3201091e-39
-0.033854287 -0.18743715 0.86700004 3.3201091e-39
-0.032277141 -0.18786952 0.86900002 7.8125696e-39
-0.030833337 -0.18916668 0.87500006 1.1869177e-38
-0.029166669 -0.18916668 0.87500006 1.3978836e-38
-0.027500002 -0.18916668 0.87500006 1.4439815e-38
-0.026040001 -0.19068 0.88200003 1.3335959e-38
-0.024360001 -0.19068 0.88200003 1.4257915e-38
-0.022860002 -0.19219334 0.88900006 1.0679988e-38
-0.021214288 -0.19262572 0.89100003 8.0063146e-39
-0.019670477 -0.19413905 0.89800006 6.8166332e-39
-0.017960001 -0.19413905 0.89800006 7.9229667e-39
-0.016303809 -0.19478762 0.90100002 1.1498263e-38
-0.014668572 -0.19586857 0.90600002 1.2512415e-38
-0.012971429 -0.19630097 0.90800005 1.1500691e-38
-0.011241905 -0.19630097 0.90800005 6.890909e-39
-0.0095333336 -0.19673334 0.91000003 4.3256066e-39
-0.0078428574 -0.19781429 0.91500002 8.2900187e-39
-0.00612 -0.19846287 0.91800004 8.1993252e-39
-0.0044047623 -0.19997621 0.92500007 5.4334563e-39
-0.0026571429 -0.20105715 0.93000007 6.5275691e-39
-0.00089047622 -0.2021381 0.93500006 6.6197648e-39
0.00089047622 -0.2021381 0.93500006 6.6183046e-39
0.0026800002 -0.20278667 0.93800002 7.4480653e-39
0.0044761905 -0.20321907 0.94000006 8.2770931e-39
0.0062866667 -0.20386761 0.94300002 9.291245e-39
0.0080828574 -0.20386761 0.94300002 8.7380712e-39
0.0099104764 -0.20451619 0.94600004 6.4331805e-39
0.011712381 -0.20451619 0.94600004 2.3906222e-39
0.013514286 -0.20451619 0.94600004 3.8657523e-39
0.015316191 -0.20451619 0.94600004 1.2523205e-38
0.017118096 -0.20451619 0.94600004 1.9437878e-38
0.018960001 -0.20494859 0.94800007 1.5857257e-38
0.020765714 -0.20494859 0.94800007 6.3611075e-39
0.022642858 -0.20559715 0.95100003 8.2061425e-39
0.024454286 -0.20559715 0.95100003 1.8716444e-38
0.026348574 -0.20624572 0.95400006 2.0462789e-38
0.028224763 -0.20667811 0.95600003 1.9264246e-38
0.030140001 -0.20732667 0.95900005 1.6408261e-38
0.031966668 -0.20732667 0.95900005 2.9477042e-39
0.03389905 -0.20797525 0.96200007 2.3895656e-39
0.035805713 -0.20840763 0.96400005 1.9906735e-38
0.037759051 -0.2090562 0.96700007 2.0925577e-38
0.039723814 -0.20970476 0.97000003 1.9358253e-38
0.041571431 -0.20970476 0.97000003 1.4845647e-38
0.043553334 -0.21035334 0.97300005 3.6899762e-39
0.045639999 -0.21143429 0.97800004 4.2431472e-39
0.04818286 -0.21446095 0.99200004 7.3777986e-39
0.050072383 -0.21446095 0.99200004 8.758938e-39
0.051961906 -0.21446095 0.99200004 9.496503e-39
0.054014288 -0.21510954 0.99500006 1.0325647e-38
0.056078095 -0.2157581 0.99800003 1.216956e-38
-0.040553335 -0.1862143 0.86900002 3.6900603e-39
-0.038898095 -0.1862143 0.86900002 2.4039205e-39
-0.037157144 -0.18578573 0.86700004 2.2195292e-39
-0.035505716 -0.18578573 0.86700004 3.8722543e-39
-0.033854287 -0.18578573 0.86700004 4.2410368e-39
-0.032277141 -0.1862143 0.86900002 8.8282027e-39
-0.030833337 -0.18750001 0.87500006 1.2147245e-38
-0.029166669 -0.18750001 0.87500006 1.2411864e-38
-0.027500002 -0.18750001 0.87500006 1.0475756e-38
-0.026040001 -0.18900001 0.88200003 1.1304074e-38
-0.024360001 -0.18900001 0.88200003 1.5268486e-38
-0.022808572 -0.19007143 0.88700002 1.178632e-38
-0.021166669 -0.19050001 0.88900006 7.9141035e-39
-0.019670477 -0.19242859 0.89800006 8.7415913e-39
-0.017960001 -0.19242859 0.89800006 1.2521602e-38
-0.016303809 -0.19307142 0.90100002 1.3252112e-38
-0.014668572 -0.19414286 0.90600002 1.0855025e-38
-0.012971429 -0.19457145 0.90800005 9.3873517e-39
-0.011241905 -0.19457145 0.90800005 8.7419823e-39
-0.009564762 -0.19564286 0.91300005 6.8199403e-39
-0.0078428574 -0.19607143 0.91500002 7.373114e-39
-0.00612 -0.19671428 0.91800004 7.4620853e-39
-0.0026800002 -0.20100001 0.93800002 6.3439066e-39
-0.00089333334 -0.20100001 0.93800002 6.4361022e-39
0.00089333334 -0.20100001 0.93800002 6.7122981e-39
0.0026857145 -0.20142858 0.94000006 6.6201025e-39
0.0044761905 -0.20142858 0.94000006 7.6324397e-39
0.0063066669 -0.20271429 0.94600004 7.7246354e-39
0.0081085712 -0.20271429 0.94600004 7.7235564e-39
0.0099104764 -0.20271429 0.94600004 6.6172088e-39
0.011712381 -0.20271429 0.94600004 4.22913e-39
0.013514286 -0.20271429 0.94600004 1.0406237e-38
0.015316191 -0.20271429 0.94600004 1.2069768e-38
0.017118096 -0.20271429 0.94600004 1.2899528e-38
0.018960001 -0.20314287 0.94800007 1.1244883e-38
0.020765714 -0.20314287 0.94800007 1.4748317e-38
0.022642858 -0.20378572 0.95100003 1.6592737e-38
0.02453143 -0.20442858 0.95400006 2.0003976e-38
0.026348574 -0.20442858 0.95400006 1.9451142e-38
0.028224763 -0.20485714 0.95600003 1.3735013e-38
0.030234287 -0.20614287 0.96200007 6.4569984e-39
0.032066669 -0.20614287 0.96200007 9.2526056e-40
0.033969525 -0.20657143 0.96400005 6.6306879e-39
0.035805713 -0.20657143 0.96400005 1.9722389e-38
0.037759051 -0.2072143 0.96700007 2.0003603e-38
0.039723814 -0.20785715 0.97000003 1.3457713e-38
0.041571431 -0.20785715 0.97000003 9.9538658e-39
0.043642856 -0.20892857 0.97500002 4.422128e-39
0.045639999 -0.20957144 0.97800004 5.34629e-39
0.04818286 -0.21257144 0.99200004 7.7433763e-39
0.050072383 -0.21257144 0.99200004 7.1934269e-39
0.051961906 -0.21257144 0.99200004 9.3139264e-39
0.054177143 -0.21385714 0.99800003 1.0327089e-38
0.056078095 -0.21385714 0.99800003 1.198661e-38
-0.048717145 -0.18413429 0.86700004 9.0366487e-39
-0.047065716 -0.18413429 0.86700004 9.5898225e-39
-0.037157144 -0.18413429 0.86700004 3.6878252e-39
-0.035505716 -0.18413429 0.86700004 3.5030836e-39
-0.033854287 -0.18413429 0.86700004 5.5313875e-39
-0.032277141 -0.18455905 0.86900002 9.9402396e-39
-0.030833337 -0.18583335 0.87500006 1.224513e-38
-0.029166669 -0.18583335 0.87500006 1.1037905e-38
-0.027594287 -0.18647048 0.87800002 8.7330139e-39
-0.026040001 -0.18732001 0.88200003 9.7406624e-39
-0.024360001 -0.18732001 0.88200003 1.5088009e-38
-0.022808572 -0.18838191 0.88700002 1.2522065e-38
-0.021166669 -0.18880667 0.88900006 6.2527619e-39
-0.019582856 -0.18986858 0.89400005 8.6354065e-39
-0.017880002 -0.18986858 0.89400005 1.637983e-38
-0.016213333 -0.19029333 0.89600003 1.3624838e-38
