# .PCD v0.7 - Point Cloud Data file format
VERSION 0.7
FIELDS x y z normal_x normal_y normal_z curvature
SIZE 4 4 4 4 4 4 4
TYPE F F F F F F F
COUNT 1 1 1 1 1 1 1
WIDTH 584
HEIGHT 1
VIEWPOINT 0 0 0 1 0 0 0
POINTS 584
DATA ascii
-0.041583471 -0.20493303 0.97342741 0.30652484 -0.3428317 0.89118594 0.032133903
-0.03988139 -0.2047455 0.97285169 0.27264372 -0.34379828 0.90178871 0.032649968
-0.037502766 -0.20481496 0.97205871 0.2257356 -0.34171721 0.91532874 0.032814529
-0.035781406 -0.20471708 0.97175747 0.18519048 -0.33708623 0.92556798 0.03227856
-0.034005854 -0.20467331 0.9716149 0.14422593 -0.33319148 0.9333812 0.031230373
-0.03202109 -0.20493041 0.97146815 0.093946643 -0.32509941 0.94268918 0.028265022
-0.030309904 -0.20495778 0.97163367 0.054959122 -0.31796572 0.9476043 0.025926515
-0.028630115 -0.20473218 0.97189659 0.024534911 -0.31343988 0.94988632 0.024462283
-0.026836801 -0.2047912 0.97212285 -0.010881361 -0.30757177 0.95182747 0.022738243
-0.025055269 -0.20488198 0.97247702 -0.0417419 -0.30030581 0.95319146 0.021015706
-0.023282865 -0.20498586 0.97284538 -0.068523593 -0.29642588 0.95281297 0.019254345
-0.021515863 -0.20509814 0.97325164 -0.088684291 -0.29317778 0.95216066 0.018468421
-0.019522406 -0.20499462 0.97369885 -0.099924892 -0.29232424 0.95135719 0.017652022
-0.017556002 -0.20496531 0.97414476 -0.11215773 -0.29386476 0.94951308 0.016265454
-0.015936302 -0.20523852 0.97457844 -0.1237905 -0.28754839 0.95000857 0.016022392
-0.014154061 -0.20535034 0.97500837 -0.13106966 -0.2846238 0.94990999 0.015471828
-0.012359518 -0.20545299 0.97539216 -0.1330864 -0.28414494 0.94977582 0.015473065
-0.010309518 -0.20542146 0.97572106 -0.13162896 -0.29185441 0.94756699 0.013930005
-0.0084953858 -0.20552357 0.9760657 -0.12799855 -0.29423523 0.9473148 0.014124059
-0.0063315411 -0.20540275 0.97649378 -0.12239319 -0.29701841 0.94716656 0.014621192
-0.0045121834 -0.20548087 0.97675842 -0.11387729 -0.29691854 0.94825375 0.01469672
-0.0026866407 -0.20554626 0.97698176 -0.10358398 -0.29682547 0.94945097 0.01439756
-0.00085238373 -0.2055992 0.97716868 -0.093373828 -0.29766887 0.95021784 0.013886373
0.00098985713 -0.20565583 0.97736168 -0.087839194 -0.29705709 0.9509083 0.013755857
0.0028359732 -0.20570844 0.97753966 -0.083484828 -0.29563183 0.95171928 0.013802543
0.0046871756 -0.20574653 0.97767001 -0.079946324 -0.29446381 0.95237017 0.013766257
0.006540277 -0.20577788 0.97777748 -0.07593701 -0.29382396 0.95290643 0.013605726
0.0083944406 -0.20580614 0.97787219 -0.072018184 -0.29299793 0.95350552 0.01352717
0.010248681 -0.20583566 0.97796786 -0.069936588 -0.29000473 0.95466423 0.013990728
0.012102729 -0.20586516 0.9780612 -0.068700165 -0.28730908 0.95575517 0.014398106
0.013957361 -0.20589197 0.97814339 -0.067513637 -0.28246206 0.95757163 0.014888708
0.015814509 -0.20590913 0.9781934 -0.069269404 -0.27672401 0.95952278 0.015409675
0.017671185 -0.20592132 0.97822732 -0.079852797 -0.26831958 0.96166605 0.016556598
0.019523703 -0.20594563 0.97829521 -0.089814022 -0.25836262 0.96437365 0.017429665
0.021368762 -0.20598148 0.97839451 -0.10691029 -0.24773563 0.96649575 0.018625397
0.023198465 -0.20603801 0.9785524 -0.13121164 -0.23455077 0.96820033 0.020354424
0.024995495 -0.20611686 0.97876561 -0.16966785 -0.22337751 0.96650326 0.023246866
0.026747178 -0.20623612 0.97909063 -0.19087178 -0.20237386 0.97073495 0.024429904
0.028462 -0.20637922 0.97947758 -0.19535026 -0.16853832 0.98383069 0.024198659
0.030152341 -0.20653416 0.97989154 -0.20073532 -0.13573042 0.99671423 0.023754595
0.032828841 -0.20634146 0.98062962 -0.21410985 -0.084694982 1.0148323 0.022702908
0.063928075 -0.20912756 0.99620676 0.067503527 -0.53295869 0.86778075 0.026056351
0.065864414 -0.2090859 0.99607337 0.07208851 -0.49212527 0.89186853 0.025983803
0.067818806 -0.20905666 0.9959166 0.080748796 -0.45962629 0.91321212 0.027985396
0.069097027 -0.20963344 0.99546146 0.058487579 -0.44494504 0.91957217 0.02803684
0.07100293 -0.20958152 0.99537963 0.053209234 -0.41180465 0.93632108 0.029848652
0.072210215 -0.21000715 0.99516982 0.039287612 -0.39394838 0.93988478 0.031413015
0.074086398 -0.20988226 0.99523741 0.028499171 -0.35885 0.95275831 0.034558225
0.076690778 -0.20952903 0.99538767 0.018800868 -0.31312132 0.9684639 0.037344404
0.077867039 -0.20965275 0.995368 0.0091179851 -0.29327863 0.97143394 0.036835436
0.07977552 -0.20957439 0.99546498 -0.0042345556 -0.25825194 0.97753686 0.035932846
0.082371809 -0.20952621 0.99554795 -0.01655676 -0.20986758 0.98417693 0.033248022
0.084283561 -0.20950805 0.99553049 -0.019932002 -0.16684119 0.98919392 0.028845197
0.086179569 -0.20951439 0.99562407 -0.02340222 -0.12931374 0.99336034 0.025725389
0.088070221 -0.20952964 0.99573624 -0.030770734 -0.099623352 0.99662286 0.023592269
0.090436675 -0.2097757 0.99591321 -0.03969761 -0.073637284 0.99865085 0.021183847
0.09230464 -0.20981106 0.9961428 -0.040490605 -0.058440935 1.0002468 0.020514617
0.094184235 -0.20984262 0.99638247 -0.04073466 -0.040717676 1.0024921 0.020370841
0.096066192 -0.2098739 0.99659652 -0.04213709 -0.026864903 1.0039631 0.020659184
0.097956888 -0.20990729 0.9967525 -0.049672447 -0.01215033 1.0043294 0.02052319
0.099848531 -0.20993324 0.99688673 -0.05155002 -0.00094756956 1.0045792 0.020900048
0.10131769 -0.20965773 0.99704701 -0.053281333 0.0096659297 1.0063065 0.022088317
0.10322714 -0.20965616 0.99711239 -0.04425038 0.0055709956 1.0057636 0.022411767
0.10513964 -0.20963757 0.99708486 -0.033223502 -0.00080565043 1.0046682 0.022314858
0.10704577 -0.20961972 0.99706423 -0.021325562 -0.0093462737 1.0033869 0.022496954
0.10895656 -0.20959625 0.99695307 -0.0070955781 -0.022627804 1.0018709 0.022155151
0.11087348 -0.20957637 0.99683094 0.0096322689 -0.037717421 1.0003122 0.022310287
0.11308379 -0.20995526 0.99654734 0.030626426 -0.063946225 0.99760586 0.02188809
0.11496545 -0.20995551 0.99632138 0.039867084 -0.084024362 0.99608481 0.02172439
0.11684849 -0.20995715 0.99611372 0.045899365 -0.10780676 0.99478984 0.021994397
0.11873034 -0.20996614 0.99586642 0.048737708 -0.13448417 0.9941349 0.022095775
0.12037519 -0.2094553 0.99581063 0.041436817 -0.155343 0.99389058 0.022693418
0.12226194 -0.20944445 0.99565274 0.041709885 -0.19096798 0.99367422 0.023073437
0.12415181 -0.20944364 0.99554706 0.038863722 -0.22959957 0.99167901 0.024884213
0.12604131 -0.20944332 0.99548167 0.040686373 -0.27398756 0.98919588 0.026695261
0.12793045 -0.20944402 0.9954164 0.052212741 -0.32429096 0.98522383 0.028692685
0.12982509 -0.20944729 0.99533576 0.055465057 -0.36739808 0.9765479 0.029869501
0.1320717 -0.20978476 0.99515009 0.039494045 -0.41683647 0.96443856 0.030237451
0.13399564 -0.20973454 0.9951067 0.042365752 -0.47212002 0.95350838 0.032088567
-0.071954913 -0.20629747 0.98789656 0.083698995 0.057373092 1.1978264 0.041694045
-0.070118047 -0.20624438 0.98777378 0.12425943 -0.041130483 1.139075 0.038638353
-0.068314433 -0.20614949 0.98759151 0.15847668 -0.12266842 1.0854619 0.036520083
-0.066551805 -0.20602643 0.98734903 0.20047446 -0.19634628 1.0304133 0.033309784
-0.064828753 -0.20588584 0.98705661 0.23736508 -0.24978833 0.98506397 0.030573139
-0.063143983 -0.20573446 0.9867087 0.27443746 -0.28674132 0.94772249 0.02733873
-0.060079787 -0.20581488 0.98547786 0.35629815 -0.33281818 0.88180953 0.022918379
-0.058575999 -0.20554255 0.98483181 0.38580683 -0.35044834 0.8584547 0.021516418
-0.058466513 -0.20510426 0.98497826 0.38335297 -0.35029674 0.85969502 0.021448789
-0.056968398 -0.20487851 0.98427355 0.40808904 -0.36028638 0.84272236 0.020234017
-0.054280769 -0.20463669 0.98233914 0.44198748 -0.35577098 0.825315 0.019890262
-0.051692527 -0.20437296 0.98034471 0.44340405 -0.35037839 0.82766467 0.022284901
-0.050245181 -0.20400921 0.97933012 0.43121657 -0.34605026 0.83622938 0.024386076
-0.047666393 -0.20383283 0.97758478 0.3962124 -0.33950266 0.85515827 0.026342476
-0.046132162 -0.20349109 0.97664589 0.37284571 -0.34344336 0.86403406 0.028591327
-0.043581244 -0.20342624 0.97519386 0.33352232 -0.34860969 0.87792116 0.030520052
-0.0419393 -0.20316429 0.97445625 0.30939239 -0.35758355 0.88377386 0.031806495
-0.03972334 -0.20311941 0.97351903 0.27261317 -0.36340529 0.89401513 0.033088937
-0.037983034 -0.20295797 0.9730528 0.23794869 -0.36208126 0.90449792 0.033020921
-0.036182292 -0.20284545 0.97271842 0.20161687 -0.35776001 0.91510314 0.032245196
-0.033941686 -0.20308624 0.97231865 0.14910696 -0.3501673 0.92703676 0.031406578
-0.032012906 -0.20337363 0.97219461 0.10038068 -0.34064615 0.93739295 0.02813953
-0.030295391 -0.20339732 0.97233886 0.057551973 -0.33318844 0.94244909 0.026334984
-0.028630966 -0.20312802 0.97264796 0.028976005 -0.32454205 0.94634503 0.024978882
-0.026854841 -0.20318873 0.97289866 -0.0063933972 -0.31689227 0.9490087 0.02363652
-0.025095779 -0.20325795 0.97320998 -0.038596574 -0.30830431 0.95093095 0.022308772
-0.023340493 -0.20334545 0.97359699 -0.066080332 -0.29959232 0.95212096 0.021203678
-0.021580087 -0.20345107 0.97401446 -0.086532354 -0.2942262 0.95213157 0.020630157
-0.019591702 -0.20335665 0.97447044 -0.098159909 -0.29084799 0.95201677 0.019979868
-0.017633863 -0.20333089 0.97490811 -0.10885366 -0.2899555 0.9511115 0.01891521
-0.016025409 -0.20359293 0.97537619 -0.12258982 -0.28260303 0.95167649 0.018470872
-0.014249949 -0.20369746 0.97580945 -0.12997161 -0.27879527 0.95181513 0.017887419
-0.012465332 -0.20379356 0.97620839 -0.13348116 -0.27616745 0.95208931 0.018069135
-0.010420604 -0.20378214 0.97654003 -0.13350442 -0.28079909 0.95061803 0.016498767
-0.0082459813 -0.20369428 0.97697449 -0.12998223 -0.28327847 0.95031464 0.016739253
-0.0064321053 -0.20378464 0.97729713 -0.12194451 -0.2830801 0.95142204 0.017036222
-0.0046046791 -0.20385703 0.97755647 -0.11407478 -0.28326583 0.95231736 0.016983297
-0.0027698909 -0.20391753 0.97777134 -0.10288493 -0.28306305 0.95362294 0.016575115
-0.0009294413 -0.20397694 0.97797954 -0.092646427 -0.28289637 0.95469373 0.016056208
0.0011850386 -0.20380399 0.97826767 -0.084295861 -0.28242463 0.95558524 0.015713748
0.0030348822 -0.2038433 0.97842294 -0.078780785 -0.28092086 0.95652407 0.015420317
0.0048953076 -0.20387402 0.97854739 -0.07442309 -0.27867487 0.95761389 0.015241236
0.0067566619 -0.20388953 0.97863698 -0.069614403 -0.27731147 0.95851898 0.014892094
0.0083200401 -0.20418768 0.9786796 -0.066628806 -0.27287325 0.96011329 0.015382868
0.010176688 -0.20420562 0.97872466 -0.064635113 -0.27095336 0.96106118 0.015427241
0.012030944 -0.20423722 0.97881418 -0.059367944 -0.26693398 0.96294165 0.015559191
0.013884895 -0.20425606 0.97885764 -0.058353238 -0.26100159 0.96532118 0.016077429
0.016089769 -0.2039507 0.97899705 -0.052410152 -0.24917506 0.97035944 0.01667043
0.017979564 -0.20393561 0.97898233 -0.060520947 -0.23844138 0.9738307 0.017914599
0.019860249 -0.2039379 0.97901297 -0.067296103 -0.2237744 0.97866231 0.018669657
0.021297779 -0.20431504 0.9789694 -0.077082083 -0.21635516 0.98084509 0.019093405
0.023127776 -0.20435227 0.97905707 -0.098909751 -0.20019338 0.98505515 0.020705653
0.025569983 -0.20401137 0.97936177 -0.14484841 -0.1736356 0.99118191 0.025060331
0.027439358 -0.20409884 0.97962588 -0.15670732 -0.14389464 1.0030193 0.025792491
0.029274752 -0.20420204 0.97991508 -0.16357291 -0.1088215 1.0181135 0.025717264
0.031073706 -0.20432156 0.98022765 -0.1685735 -0.068087585 1.0337862 0.02522031
0.032819852 -0.2044791 0.98064762 -0.18303177 -0.034974024 1.0432228 0.024003943
0.063782163 -0.20774943 0.99724978 0.12020033 -0.51264983 0.88356072 0.027848933
0.065722808 -0.20764185 0.99701494 0.11810222 -0.47218013 0.90728068 0.027938697
0.067665517 -0.20755465 0.99678624 0.12174837 -0.43937689 0.92653888 0.029083075
0.068971306 -0.20813438 0.99629408 0.099358797 -0.4248023 0.93231362 0.029286416
0.070880972 -0.2080113 0.9961589 0.09034574 -0.39825538 0.94464177 0.031494237
0.072157472 -0.20845155 0.99590385 0.075441428 -0.37073481 0.95066291 0.033483908
0.074051775 -0.20821141 0.99591774 0.068500288 -0.3426218 0.96058732 0.037416223
0.076615587 -0.20777094 0.99593449 0.058027383 -0.29820958 0.97558141 0.038526721
0.079189263 -0.20773935 0.99577254 0.039579399 -0.25816888 0.98329908 0.035391185
0.081059813 -0.2077824 0.99560463 0.027163036 -0.21888074 0.98727959 0.029847037
0.082368694 -0.20763786 0.99570429 0.021969125 -0.1995699 0.988778 0.030085521
0.08427766 -0.20762026 0.99567765 0.013076233 -0.15784411 0.99285537 0.026544645
0.086172029 -0.20762046 0.99574536 0.0051758429 -0.12747051 0.99563372 0.024886422
0.088071622 -0.20761803 0.99575919 -0.0060930233 -0.094351023 0.99813455 0.022458637
0.090438023 -0.20793407 0.99590027 -0.021223046 -0.068430364 0.99916178 0.020441975
0.092310183 -0.20795485 0.99611467 -0.024069984 -0.050441872 1.000604 0.02024658
0.0937391 -0.20767435 0.99630469 -0.027997982 -0.027709465 1.0031629 0.020120109
0.095635854 -0.20769104 0.99646878 -0.036242664 -0.010879149 1.0043274 0.020169178
0.097965322 -0.20801982 0.9966045 -0.047876306 0.0068363375 1.0041387 0.020028302
0.099426933 -0.20770608 0.99675006 -0.05684413 0.02864855 1.0065302 0.02092677
0.1013281 -0.2076977 0.99683434 -0.057061791 0.031556472 1.0057299 0.021239158
0.10323779 -0.20769471 0.99688727 -0.050886609 0.029092627 1.0053955 0.021542059
0.10514836 -0.20768891 0.99688035 -0.042767275 0.025862679 1.0051814 0.021706227
0.1070535 -0.20767643 0.99686992 -0.033946905 0.017844485 1.0041411 0.021937611
0.10896453 -0.20765902 0.99678344 -0.021219667 0.0046624509 1.0028951 0.021698466
0.11087929 -0.20763423 0.99665409 -0.0072970199 -0.011517203 1.0013484 0.021323994
0.11279039 -0.20761795 0.99651325 0.0034842875 -0.030262977 1.0000232 0.02137371
0.11469653 -0.20759968 0.99635196 0.009956345 -0.051385645 0.99875188 0.021295194
0.12063675 -0.20808642 0.99588865 0.016826611 -0.14558302 0.99585837 0.022172034
0.12255023 -0.20808239 0.99584293 0.01451055 -0.18149962 0.99449575 0.023793714
0.12446326 -0.20806573 0.99579638 0.0072803488 -0.2157768 0.99222177 0.025348132
0.12638241 -0.20805724 0.99581748 0.0062187649 -0.25675052 0.98958337 0.027115462
0.12831426 -0.20803718 0.99586487 0.021779973 -0.30849487 0.98458219 0.029188735
0.13021152 -0.20799065 0.99587154 0.017410452 -0.34398341 0.97647572 0.030160608
0.13209671 -0.20794533 0.99595404 -0.011204525 -0.36515352 0.9680596 0.030342201
0.13401964 -0.20792481 0.99602866 -0.010316183 -0.40868405 0.95916665 0.03182194
-0.075146705 -0.20357856 0.9872719 -0.097531863 0.27929497 1.3580624 0.046932884
-0.072043099 -0.20433322 0.98771226 0.013888774 0.093944639 1.2523375 0.042684425
-0.07012362 -0.20436764 0.98776478 0.06651476 -0.0082782777 1.1874861 0.039552551
-0.068236999 -0.20434776 0.98774111 0.10206174 -0.096894041 1.1293612 0.036400311
-0.066398904 -0.20428836 0.98763019 0.15178078 -0.17747754 1.0689127 0.033416584
-0.064603224 -0.20419073 0.98745656 0.19707665 -0.21596508 1.0261663 0.029868277
-0.062891059 -0.20404968 0.98715651 0.24238877 -0.24791448 0.98526531 0.026877606
-0.061250083 -0.20386876 0.98673993 0.28894839 -0.27638158 0.94626015 0.024590008
-0.059679002 -0.20364825 0.98620415 0.33073759 -0.29718608 0.91271275 0.022326397
-0.05813067 -0.20342869 0.98561537 0.36458361 -0.31560841 0.88459116 0.020550929
-0.056621507 -0.20319122 0.98493892 0.39316648 -0.33125451 0.86163706 0.019283811
-0.053965483 -0.20294745 0.98294932 0.42939413 -0.33903435 0.8371616 0.020301918
-0.052552264 -0.20254678 0.98194987 0.43206775 -0.340168 0.83544976 0.022456076
-0.051090494 -0.20212471 0.98090768 0.42530721 -0.33700806 0.84071243 0.02424347
-0.048464973 -0.20195995 0.97900295 0.40026176 -0.34071359 0.85206664 0.026244713
-0.046888024 -0.20160052 0.97806007 0.37241775 -0.33869821 0.86514539 0.027944382
-0.045249715 -0.2012478 0.97715765 0.35144258 -0.34962231 0.86970383 0.029724423
-0.042602565 -0.20123686 0.97568727 0.31948406 -0.36757565 0.87558728 0.03190022
-0.040041167 -0.2013295 0.97453922 0.2789079 -0.37298787 0.88773769 0.03288582
-0.038267467 -0.20114964 0.97403222 0.24658108 -0.37365437 0.89741242 0.033017684
-0.036069289 -0.2012552 0.9734816 0.20833364 -0.37138799 0.90902925 0.032439996
-0.034248106 -0.20119925 0.97333235 0.1667413 -0.36294872 0.91987616 0.031513263
-0.032159064 -0.2014989 0.97311026 0.1166966 -0.35517317 0.93070889 0.029721346
-0.030403139 -0.20150357 0.97323239 0.073923014 -0.34372631 0.93835151 0.027760485
-0.02871953 -0.20125534 0.97354847 0.044133052 -0.33150372 0.9437784 0.026975764
-0.026883313 -0.20132282 0.973791 0.0072609889 -0.320241 0.94817394 0.026259961
-0.025058493 -0.20139772 0.9740746 -0.025400676 -0.30884433 0.95135915 0.025596084
-0.023246709 -0.20148546 0.97441345 -0.053234842 -0.29837152 0.95338416 0.024718234
-0.021343403 -0.20144562 0.97480786 -0.074180715 -0.29318845 0.95345306 0.024004625
-0.01952192 -0.20157093 0.97525424 -0.092823423 -0.28585345 0.95400929 0.022687754
-0.017468963 -0.20146871 0.97570091 -0.10850433 -0.28339607 0.95302814 0.021409454
-0.015634378 -0.20160374 0.97614372 -0.11711116 -0.27776995 0.95366168 0.020873219
-0.013801862 -0.20173247 0.97658777 -0.1258059 -0.27375308 0.95366949 0.019593632
-0.011980408 -0.20185147 0.97701126 -0.13122267 -0.27057898 0.95380455 0.019121669
-0.010167325 -0.20196486 0.97742009 -0.1327135 -0.26677328 0.95464706 0.019567667
-0.0079844482 -0.20184836 0.97783273 -0.12824176 -0.27217674 0.95367014 0.018106937
-0.00618015 -0.20193104 0.97812998 -0.11921056 -0.27027184 0.95537597 0.018212104
-0.004369041 -0.20200117 0.97837478 -0.1087784 -0.26707506 0.95752054 0.018299624
-0.0025550518 -0.20207284 0.9786188 -0.097326256 -0.26324266 0.95982629 0.018344883
-0.00072312407 -0.2021326 0.97884911 -0.088775136 -0.26122102 0.96125311 0.018279554
0.0011143619 -0.20218344 0.97903657 -0.079764642 -0.2581009 0.96296024 0.01825471
0.0029624328 -0.20222872 0.97920889 -0.072959788 -0.25525603 0.96438926 0.017873555
0.0048265266 -0.2022465 0.97930014 -0.068410359 -0.25332153 0.96549392 0.017391389
0.006689453 -0.20226851 0.97938895 -0.063556142 -0.24942555 0.96717364 0.017132809
0.0082498677 -0.20253181 0.97941619 -0.059999861 -0.24567683 0.96857238 0.0173687
0.010103314 -0.20255286 0.97945809 -0.056822449 -0.24212874 0.97026724 0.017419847
0.011955305 -0.20258883 0.97953969 -0.050147261 -0.23744547 0.97276735 0.0174028
0.013809992 -0.20261091 0.97956812 -0.044984385 -0.23130943 0.97585785 0.017643213
0.01602288 -0.20230769 0.97965723 -0.035022739 -0.21598233 0.98252261 0.018078906
0.017904719 -0.20228246 0.97960728 -0.037411895 -0.20315936 0.98745918 0.019189565
0.019789703 -0.20226149 0.97956568 -0.043397795 -0.18753605 0.99309975 0.0200554
0.021676591 -0.20224291 0.97954339 -0.055065908 -0.17054194 0.99917334 0.021176003
0.023575833 -0.20223461 0.97955781 -0.072031811 -0.14899974 1.0072803 0.02282008
0.025477067 -0.20226228 0.97967362 -0.10161372 -0.12480027 1.0154358 0.025332339
0.027369166 -0.20231023 0.97983801 -0.12298856 -0.096037634 1.0275115 0.027104964
0.02838874 -0.20282294 0.97989756 -0.13348103 -0.083765157 1.031492 0.027886253
0.030127587 -0.20288938 0.98009062 -0.13239576 -0.043368384 1.0501785 0.027408054
0.065600798 -0.20618135 0.99786544 0.16949438 -0.44317216 0.92740554 0.030757861
0.067544527 -0.20603256 0.99756348 0.16529879 -0.40763518 0.94604146 0.031125257
0.068877369 -0.20661578 0.99705815 0.14202945 -0.4021849 0.94620121 0.030649612
0.070786953 -0.20641463 0.99689883 0.1274351 -0.38117737 0.95392555 0.033317823
0.072140068 -0.20683888 0.9966104 0.11067527 -0.35665396 0.95689851 0.035105389
0.074074611 -0.20654042 0.99651814 0.10522512 -0.32004142 0.96777529 0.037853681
0.076569736 -0.20598371 0.99644047 0.097133406 -0.28810728 0.97990853 0.038182035
0.084761187 -0.20602706 0.9956916 0.042935513 -0.14931661 0.99595356 0.022846332
0.086652987 -0.20605415 0.9957521 0.029847333 -0.12496084 0.99747425 0.021936027
0.088553809 -0.20606929 0.99579054 0.016664522 -0.099793904 0.9989478 0.021074815
0.090442665 -0.20609379 0.99591422 0.0034177057 -0.079223238 0.99959046 0.019911421
0.092318416 -0.20610705 0.99607968 -0.0032108729 -0.056205805 1.000429 0.019622626
0.093740508 -0.20573461 0.99623126 -0.0100864 -0.028698251 1.0022 0.019698841
0.095639788 -0.20574066 0.99631774 -0.025707135 -0.0084657138 1.0026563 0.019409057
0.09797927 -0.20614372 0.99639869 -0.044277236 0.014530869 1.002368 0.019006781
0.099436186 -0.20575354 0.99652821 -0.058318079 0.040934235 1.0047415 0.020503528
0.10133853 -0.20575131 0.99660879 -0.061932083 0.046214655 1.004511 0.020899285
0.10324819 -0.20574859 0.99665302 -0.05695555 0.04627477 1.0045234 0.021178808
0.10515691 -0.20574357 0.99663895 -0.051484443 0.043316178 1.0044217 0.021173125
0.10706143 -0.20573215 0.99662739 -0.045853242 0.035425 1.0035141 0.021091014
0.1089709 -0.20571743 0.99655086 -0.035824232 0.021379892 1.0025113 0.020596063
0.11088261 -0.2057008 0.99645418 -0.024947269 0.0038643826 1.0014763 0.020130731
0.11279289 -0.2056922 0.99634898 -0.017015398 -0.014840474 1.0008236 0.020116094
0.11469724 -0.205681 0.99624002 -0.014017696 -0.037171818 1.0001147 0.019985763
0.11873634 -0.20619062 0.9960776 -0.011498273 -0.097018093 0.99852836 0.021437785
0.12064663 -0.20618767 0.99608415 -0.016275782 -0.12779546 0.99730396 0.022944801
0.1225653 -0.20618449 0.99612629 -0.020660371 -0.16198535 0.99553442 0.024611419
0.12447833 -0.20617306 0.99616301 -0.028695215 -0.19388035 0.99318612 0.025939805
0.12639828 -0.20616612 0.99627829 -0.03132356 -0.23015656 0.98993611 0.02750103
0.12832697 -0.20615919 0.99640846 -0.022492394 -0.27296489 0.98545456 0.029244352
0.12979312 -0.20575573 0.99660641 -0.026105309 -0.29021329 0.98047018 0.030424625
0.13169532 -0.20580444 0.99670196 -0.038634293 -0.31405753 0.97302479 0.030950664
0.13403231 -0.20610422 0.99678159 -0.042807888 -0.35431188 0.963642 0.031485047
0.13595012 -0.20609656 0.99688524 -0.025741432 -0.37753987 0.9564144 0.032372408
0.13786595 -0.2060868 0.99691504 -0.0039249239 -0.40817747 0.94981194 0.034707043
-0.074253112 -0.20210724 0.98701531 -0.13481639 0.25812212 1.3779632 0.048549581
-0.07219132 -0.20230304 0.98739779 -0.058167394 0.15561955 1.3259184 0.043315232
-0.070183463 -0.20242977 0.98764724 0.0001469174 0.035356373 1.2422125 0.039267026
-0.068227179 -0.20248646 0.98776668 0.045765404 -0.053440403 1.1811336 0.037133995
-0.066290982 -0.20250517 0.98782152 0.098367169 -0.12741153 1.1251813 0.033672508
-0.06444823 -0.20243861 0.98772341 0.15753467 -0.17074676 1.0726236 0.029547824
-0.062711738 -0.20231016 0.98746592 0.20850685 -0.19141945 1.0325763 0.026809834
-0.061025549 -0.20215601 0.9871273 0.25854483 -0.22739545 0.98796737 0.024563719
-0.057866976 -0.20172122 0.98609143 0.34517819 -0.2677106 0.91709143 0.019774796
-0.056359865 -0.20144823 0.98541099 0.374001 -0.28501597 0.89151567 0.019085351
-0.054934356 -0.20104726 0.98452163 0.39198422 -0.29128024 0.87823081 0.020208891
-0.05349987 -0.20057982 0.98353642 0.40167785 -0.29367122 0.87178421 0.022798603
-0.050820228 -0.2004324 0.98154026 0.40928489 -0.31610382 0.85731781 0.023961391
-0.049308386 -0.20000181 0.98053944 0.39409745 -0.31886381 0.8635748 0.025979463
-0.047708783 -0.19957186 0.97952402 0.37034532 -0.32328394 0.87244445 0.027707161
-0.04605433 -0.19918674 0.97861725 0.35383993 -0.33845559 0.87304276 0.02955791
-0.043281615 -0.19925025 0.97704196 0.31990224 -0.36256546 0.8764168 0.031722534
-0.040638275 -0.19936058 0.97573853 0.29333809 -0.38302082 0.87860817 0.033748072
-0.038104914 -0.19958098 0.97483635 0.25340489 -0.3834841 0.8916558 0.033556189
-0.03628961 -0.19947065 0.97452629 0.21970676 -0.37985307 0.90282321 0.033059917
-0.034152474 -0.1996424 0.9741717 0.17543153 -0.37211603 0.91535819 0.032400329
-0.032339592 -0.19961479 0.97413659 0.13679296 -0.36126864 0.9255057 0.0319064
-0.030530922 -0.19962294 0.9742201 0.093937747 -0.3473241 0.93582886 0.030174259
-0.02870659 -0.19966155 0.97440517 0.052012008 -0.33111253 0.9438535 0.029245492
-0.026925074 -0.19952767 0.97461551 0.017386407 -0.3203055 0.94815099 0.028920284
-0.025066677 -0.19960111 0.97485662 -0.016566902 -0.3077057 0.95191497 0.028796354
-0.023222884 -0.1996894 0.97516435 -0.044519521 -0.29556596 0.95460773 0.028257446
-0.021254782 -0.19957395 0.97558063 -0.068052828 -0.28579202 0.95599473 0.027386311
-0.019390248 -0.19970703 0.97601372 -0.088739477 -0.27593246 0.95715237 0.026142444
-0.017545583 -0.19983025 0.97644418 -0.10359029 -0.26918146 0.95757568 0.024740929
-0.01571266 -0.19995293 0.97687858 -0.11509309 -0.26330191 0.95789301 0.023571121
-0.013888354 -0.20006892 0.97729945 -0.12280776 -0.25884739 0.95812362 0.022104783
-0.011729201 -0.19999541 0.97778893 -0.12827463 -0.25636566 0.9580515 0.020750759
-0.0099062063 -0.20011924 0.97821218 -0.12789704 -0.25191307 0.9592846 0.020797415
-0.0080920393 -0.20023172 0.97859311 -0.12387578 -0.24588542 0.96139836 0.021311497
-0.0062725991 -0.20030367 0.97888345 -0.11588275 -0.24345218 0.96308708 0.021222746
-0.0044548479 -0.20037426 0.97914678 -0.10535252 -0.23865817 0.96559691 0.021269174
-0.0026306855 -0.20044543 0.97939628 -0.094602339 -0.23286995 0.9682194 0.02143243
-0.00079530064 -0.20049664 0.97960711 -0.084296048 -0.23009433 0.97003996 0.02118703
0.0010467039 -0.20053971 0.97977275 -0.073466875 -0.22602025 0.9721058 0.021016471
0.002896707 -0.20058395 0.97994125 -0.065612957 -0.22166036 0.97398937 0.02071709
0.0047572893 -0.20061107 0.98004758 -0.060120706 -0.21711655 0.97583085 0.020451119
0.006620883 -0.20062736 0.98011273 -0.054400329 -0.21160668 0.97797465 0.020034421
0.0084849317 -0.20064031 0.9801802 -0.047751699 -0.20718358 0.98028946 0.019503793
0.010353945 -0.20064685 0.98022604 -0.04257996 -0.20180506 0.98318183 0.019411899
0.012220592 -0.2006527 0.9802714 -0.033893984 -0.19614252 0.9867667 0.019243455
0.014087886 -0.20065142 0.98028427 -0.023086423 -0.18732688 0.99126238 0.019240204
0.015965236 -0.20062859 0.98022747 -0.017131731 -0.17623875 0.99642122 0.019642089
0.017836018 -0.20060238 0.98016477 -0.0062638875 -0.16172515 1.0027359 0.019838076
0.019726085 -0.2005643 0.98005611 -0.013151318 -0.14152569 1.010065 0.021550398
0.021613851 -0.20052548 0.97996372 -0.015358168 -0.11963952 1.0193579 0.02230021
0.023511136 -0.20049015 0.979886 -0.027345121 -0.09486942 1.0296972 0.023646558
0.024881968 -0.20088819 0.97981286 -0.034846224 -0.077678606 1.0368556 0.024303075
0.026700819 -0.20089722 0.97983187 -0.055194508 -0.045395739 1.0475546 0.026110962
0.028451229 -0.20094469 0.97993797 -0.093675308 -0.022523286 1.0548586 0.029058702
0.030195598 -0.20099138 0.98006082 -0.10789502 0.0090800477 1.0685014 0.029907873
0.067458145 -0.20445733 0.99820673 0.21607846 -0.36189586 0.97145569 0.034266364
0.068824053 -0.20505372 0.99775028 0.17568246 -0.36997756 0.96140802 0.032858025
0.070752814 -0.20477894 0.9975186 0.16246967 -0.34725517 0.96644688 0.034651928
0.072691977 -0.20454171 0.99733591 0.15279272 -0.32567176 0.96997029 0.036842845
0.074633256 -0.20433968 0.99712241 0.14465696 -0.29910946 0.97576648 0.038009923
0.086629704 -0.20421407 0.99594766 0.064496018 -0.15651844 0.99820572 0.021129815
0.088540144 -0.2042397 0.99593508 0.04652784 -0.12913291 1.0002159 0.020307479
0.090443239 -0.20425563 0.99598074 0.03072639 -0.10193961 1.0011945 0.019420953
0.092326857 -0.20426546 0.99607438 0.021665445 -0.077919163 1.0012687 0.018815264
0.09373901 -0.20379153 0.99615413 0.010186889 -0.050845876 1.0015045 0.01843244
0.095639668 -0.20378998 0.99617207 -0.011575435 -0.023990735 1.0010002 0.017962685
0.097537681 -0.20378818 0.99619251 -0.039378662 0.0085626477 1.0006052 0.017780909
0.099442974 -0.20380132 0.99625921 -0.058241967 0.035847846 1.0014453 0.019015035
0.10093462 -0.20334101 0.99630898 -0.06920509 0.050835267 1.0019888 0.02014656
0.10288505 -0.20334616 0.99636328 -0.067252174 0.057382286 1.0030043 0.020720012
0.10516679 -0.20380276 0.99636567 -0.061257239 0.051501453 1.002805 0.019918745
0.10707169 -0.20379552 0.99635816 -0.058388527 0.043812633 1.0023706 0.019838417
0.10897799 -0.20378937 0.99631357 -0.050936826 0.029634733 1.0019879 0.019357972
0.11058166 -0.20326263 0.99622732 -0.050277494 0.016032135 1.0016503 0.019094665
0.11251595 -0.2032533 0.99617207 -0.045634169 -0.0037415051 1.0015706 0.019244306
0.11443508 -0.20326029 0.99615777 -0.045708682 -0.023607526 1.0014789 0.020073334
0.11874468 -0.20428751 0.99618202 -0.041767213 -0.083296821 0.99978942 0.022410616
0.12065779 -0.20428482 0.99625957 -0.048866827 -0.11213918 0.99833751 0.023849156
0.12257928 -0.20428407 0.99638963 -0.054336097 -0.14299946 0.99611783 0.025262402
0.1244918 -0.20427848 0.99649739 -0.062482771 -0.17195693 0.99370259 0.026507096
0.12640871 -0.20427442 0.99666375 -0.068880275 -0.20194601 0.99016345 0.027994044
0.12833261 -0.20427988 0.99689192 -0.05913756 -0.23864506 0.98568308 0.029464129
0.12975782 -0.20391385 0.99711931 -0.057516705 -0.2456637 0.9817524 0.030320702
0.13165799 -0.20397247 0.99724835 -0.066419922 -0.26582888 0.97627008 0.030667787
0.13403185 -0.2042723 0.99739403 -0.073546961 -0.28681433 0.96930051 0.030517412
0.1359352 -0.20428522 0.9975422 -0.0607991 -0.30287012 0.9646908 0.032122709
0.13783923 -0.20429017 0.99761063 -0.035073303 -0.31860787 0.96128482 0.035123687
-0.074559703 -0.19989531 0.98629546 -0.23020612 0.33491537 1.4326465 0.049691208
-0.072445594 -0.20014818 0.98685777 -0.1495838 0.23258482 1.39764 0.044842783
-0.070321262 -0.20040976 0.98736399 -0.074457206 0.10392106 1.3207842 0.040354177
-0.051813696 -0.19831346 0.98300326 0.37557173 -0.24481724 0.91093349 0.024442861
-0.050271761 -0.19780247 0.98200542 0.36750564 -0.25788102 0.90869397 0.026391333
-0.047495853 -0.19785382 0.98016435 0.35175711 -0.30263346 0.89101624 0.027489314
-0.045834891 -0.1974598 0.97930413 0.33868891 -0.32306045 0.88702404 0.029653156
-0.044054929 -0.19712467 0.97848719 0.32549986 -0.34443977 0.88242191 0.031739607
-0.040441021 -0.19777699 0.97652495 0.29233667 -0.38322037 0.87816268 0.034556467
-0.03793668 -0.19804841 0.9756667 0.25855857 -0.38802665 0.88851422 0.03424326
-0.03615585 -0.19792527 0.97537237 0.22869526 -0.38547003 0.89903718 0.033953488
-0.034332633 -0.19785552 0.97519559 0.19069132 -0.37593618 0.91108119 0.034074154
-0.032493591 -0.19781072 0.9750734 0.15343089 -0.36482534 0.92235887 0.034093451
-0.030496394 -0.1980359 0.97504991 0.10409976 -0.34663934 0.93557513 0.033013128
-0.028701037 -0.19805005 0.97523874 0.06071702 -0.32495579 0.94593793 0.0324843
-0.026989119 -0.19762763 0.97547245 0.028692691 -0.31648135 0.94928497 0.031524166
-0.025080729 -0.19771604 0.97569686 -0.0043810601 -0.30087855 0.95414209 0.031574063
-0.023090877 -0.19755825 0.97605866 -0.037419345 -0.28827727 0.95695657 0.031075209
-0.021163132 -0.19769473 0.97639304 -0.062960349 -0.274005 0.95967853 0.030404575
-0.019257503 -0.19785193 0.9768008 -0.084580526 -0.25993127 0.96192378 0.028863154
-0.017367695 -0.19797018 0.97719795 -0.10200387 -0.25043774 0.96281683 0.027254073
-0.015506833 -0.19808891 0.97762477 -0.11343817 -0.24411172 0.96324688 0.025607251
-0.013649429 -0.19820178 0.9780463 -0.12224007 -0.2393982 0.96343529 0.023605973
-0.01181992 -0.19833064 0.97847944 -0.12436381 -0.23273012 0.96484983 0.02290564
-0.0099997818 -0.19844283 0.97886902 -0.12234984 -0.22642422 0.96668655 0.022973057
-0.008181951 -0.19854753 0.97923923 -0.11700831 -0.21940498 0.96908599 0.023507958
-0.0063579497 -0.19862729 0.97953951 -0.10897608 -0.21336362 0.97158056 0.02380687
-0.0045354315 -0.19870244 0.97982365 -0.098168127 -0.20527093 0.97477835 0.024038181
-0.0027037044 -0.19877005 0.98007929 -0.087523758 -0.19771944 0.97765893 0.02422237
-0.00086414022 -0.19882675 0.98030335 -0.077486157 -0.19057892 0.98038101 0.024466613
0.00098265638 -0.19886665 0.98046339 -0.064814828 -0.18453459 0.98295903 0.024354879
0.0030832142 -0.19873028 0.98070556 -0.052283939 -0.18309262 0.98514932 0.022642937
0.0046976339 -0.19892615 0.98069966 -0.049517334 -0.17264655 0.98736721 0.0235749
0.0065612625 -0.19893959 0.98075551 -0.042080313 -0.16687173 0.98974961 0.023012988
0.0084253158 -0.19895518 0.9808203 -0.035817131 -0.1610641 0.99271792 0.022248924
0.010292556 -0.19895987 0.98084182 -0.027446564 -0.15361281 0.99641484 0.022116007
0.012164021 -0.19895217 0.98082083 -0.018301932 -0.1476471 1.0006187 0.021664839
0.014032553 -0.19895159 0.9808225 -0.0047592465 -0.13539733 1.0063542 0.021915318
0.015909374 -0.1989267 0.98074472 0.0071271206 -0.12335493 1.0126462 0.021868721
0.017790224 -0.19888705 0.9806205 0.018571207 -0.10691131 1.0197814 0.022065284
0.019676296 -0.19882822 0.98044848 0.029062845 -0.089291111 1.0285792 0.021955626
0.021572452 -0.1987711 0.98027742 0.026051058 -0.06035281 1.0402365 0.023718266
0.023467798 -0.19870509 0.98008567 0.02803506 -0.031704735 1.0517 0.024427742
0.024910456 -0.19903521 0.97992992 0.023816923 -0.012290936 1.0597601 0.024786947
0.026746346 -0.19900441 0.9798333 0.00078790227 0.020814372 1.0708361 0.026924789
0.02854299 -0.19901541 0.9798649 -0.042645082 0.046193026 1.0766845 0.029515656
0.030296007 -0.19904344 0.97992498 -0.073014863 0.075486451 1.0886503 0.03170722
0.067420326 -0.20275964 0.99861038 0.25947323 -0.29116619 1.0050447 0.036935031
0.06935177 -0.20260106 0.99833506 0.21066049 -0.29931712 0.98668945 0.034898587
0.092326701 -0.20242345 0.99615145 0.049045753 -0.11307862 1.0043546 0.018256204
0.093734294 -0.20186062 0.99616629 0.032316454 -0.087530397 1.0033498 0.017480418
0.095636725 -0.20185602 0.99612421 0.0064057913 -0.054204687 1.0019441 0.016811691
0.097541459 -0.20185246 0.99604851 -0.027874617 -0.021128185 0.99998683 0.016057121
0.099446289 -0.20185925 0.99604177 -0.052958783 0.011276015 0.99889857 0.016946515
0.10092456 -0.20131017 0.99604833 -0.066528536 0.033652812 0.99892503 0.01816299
0.10289219 -0.20134842 0.99609131 -0.072875962 0.051643938 1.0005078 0.019126603
0.10517603 -0.20188057 0.99613124 -0.073166542 0.053145602 1.0017364 0.019126965
0.10707985 -0.20187521 0.99611348 -0.072268851 0.044442356 1.0016414 0.018941086
0.10898381 -0.20187536 0.99610502 -0.067315444 0.032406822 1.0018722 0.018839598
0.11059609 -0.20136501 0.99607718 -0.069292024 0.020740991 1.0022851 0.019414404
0.11252521 -0.20137566 0.99607652 -0.066832796 0.0040349765 1.0026487 0.019821825
0.11443852 -0.20139059 0.99610949 -0.069697186 -0.014411167 1.002692 0.020717105
0.11875075 -0.20238408 0.99627149 -0.071935087 -0.070255838 1.0010443 0.023176149
0.12066822 -0.20238169 0.99642205 -0.080327041 -0.096061461 0.99923903 0.024578234
0.12259145 -0.20238489 0.9966253 -0.085877255 -0.1239676 0.99652332 0.025997708
0.12450458 -0.20238292 0.99678886 -0.093692794 -0.15020859 0.99372673 0.027241565
0.12641747 -0.20238318 0.99698645 -0.1006934 -0.17275409 0.9902283 0.028288698
0.12972325 -0.20207769 0.99752462 -0.082795523 -0.20296833 0.98292983 0.030022155
0.13162172 -0.20214884 0.9976759 -0.086348042 -0.2148829 0.97946161 0.030606231
0.13402267 -0.20242742 0.99782902 -0.094182037 -0.22034168 0.97634113 0.030473664
0.13591962 -0.20244622 0.99796677 -0.076307364 -0.22118235 0.97509515 0.032174412
0.13781808 -0.20245405 0.99801594 -0.049746998 -0.21830694 0.97636509 0.034678333
-0.051682167 -0.19647406 0.98329467 0.3426207 -0.19028303 0.95924604 0.02525337
-0.050135892 -0.19597393 0.98236984 0.33484972 -0.20555204 0.95519227 0.027033562
-0.047295239 -0.19612998 0.98075491 0.32777658 -0.26966885 0.92121834 0.027441345
-0.045620844 -0.19574232 0.97994059 0.31832111 -0.29319111 0.9122557 0.030104438
-0.043829881 -0.1954235 0.97921133 0.31233358 -0.32229203 0.8994621 0.032682735
-0.040227942 -0.19624001 0.97733426 0.29420725 -0.37593177 0.88078481 0.035400722
-0.037774611 -0.19653229 0.9764908 0.26827949 -0.38728496 0.88685232 0.035212055
-0.036018103 -0.19639461 0.97622323 0.23928997 -0.38356829 0.89755642 0.035794999
-0.034229442 -0.19629845 0.97603506 0.20528351 -0.37256914 0.9106093 0.036655374
-0.032425396 -0.196243 0.97593188 0.16683728 -0.35964635 0.92371583 0.036306679
-0.030595373 -0.19623537 0.97597551 0.12336151 -0.33647865 0.93759125 0.03664894
-0.028769827 -0.19625036 0.97608387 0.07804992 -0.31449121 0.94873083 0.035892785
-0.026999071 -0.19602782 0.97627091 0.041643731 -0.29781291 0.95513415 0.036070902
-0.025103737 -0.19611347 0.97650295 0.0053897826 -0.27790385 0.9612475 0.036200404
-0.023155505 -0.19597173 0.97681147 -0.025087351 -0.26311997 0.9646818 0.035941191
-0.021236593 -0.19610874 0.97712827 -0.051475666 -0.24490522 0.96831065 0.035333574
-0.019329157 -0.19624805 0.97750801 -0.076198176 -0.22870672 0.97066867 0.034077838
-0.017448438 -0.19636923 0.97788984 -0.094064832 -0.21472238 0.9724254 0.032912232
-0.015586832 -0.1964857 0.97831738 -0.10778215 -0.20433399 0.97341698 0.03167744
-0.013742686 -0.1965934 0.97875071 -0.116249 -0.19662051 0.97425205 0.029613772
-0.011913355 -0.19669838 0.97917378 -0.1186275 -0.18955024 0.97559792 0.028384153
-0.010091396 -0.19679078 0.97953999 -0.11538202 -0.18256044 0.97752106 0.02824343
-0.0082651367 -0.19687343 0.97988397 -0.11015431 -0.17541143 0.97980666 0.028415311
-0.006438063 -0.19694406 0.98017836 -0.10123834 -0.1675716 0.98256463 0.028734159
-0.0046057259 -0.19700231 0.9804306 -0.089309275 -0.16089226 0.98537791 0.028628986
-0.0027670194 -0.19705604 0.98066396 -0.077744544 -0.15297368 0.98836243 0.028273419
-0.00092206703 -0.1971056 0.98087609 -0.067257777 -0.14255893 0.99153739 0.028242627
0.00093030784 -0.19714464 0.98104477 -0.055281933 -0.13400851 0.99435139 0.028004359
0.003028787 -0.19707875 0.98127383 -0.041435022 -0.12875794 0.99743491 0.026411861
0.0046480494 -0.19719982 0.98128086 -0.03702905 -0.11991379 0.99917269 0.026787894
0.0065141204 -0.19720758 0.98131126 -0.029004162 -0.11248323 1.0018115 0.026299886
0.0083738705 -0.19722646 0.98138356 -0.020933267 -0.10373504 1.0056221 0.025892079
0.010241326 -0.19722809 0.98137981 -0.010000933 -0.094506837 1.0100696 0.025646562
0.012113099 -0.19721988 0.98133278 0.0026591243 -0.086098149 1.015304 0.025200771
0.013988434 -0.19720174 0.98125547 0.016486431 -0.072410032 1.021763 0.025004867
0.015869003 -0.19717275 0.98113978 0.034469076 -0.059632648 1.0289063 0.024394369
0.017755028 -0.19712415 0.98096424 0.050469954 -0.042573724 1.0372266 0.024259638
0.019648528 -0.19704865 0.98070967 0.066863813 -0.025681619 1.0462002 0.023976937
0.021544179 -0.19696228 0.98043025 0.079074405 -0.0032595028 1.0558597 0.023685981
0.023445027 -0.19687764 0.98014861 0.080660008 0.032980368 1.0677971 0.025280707
0.024963506 -0.19711347 0.97989392 0.084479064 0.053319138 1.0753512 0.024909515
0.026837073 -0.19702204 0.9796223 0.071031876 0.095274918 1.0866863 0.026414124
0.028681001 -0.19697604 0.97948694 0.035027236 0.12652269 1.0941947 0.028826809
0.030489461 -0.19696975 0.97947168 -0.0052957218 0.15665707 1.1026604 0.031383019
0.098029591 -0.20059352 0.99597621 -0.017114075 -0.052139722 1.0023086 0.014933007
0.09944617 -0.1999331 0.99592155 -0.043140646 -0.023906389 0.99968547 0.015495832
0.10091825 -0.19932127 0.99587297 -0.061006691 0.0031387787 0.99827874 0.016546471
0.10289088 -0.19936709 0.99587005 -0.073333174 0.028161909 0.99876773 0.017865485
0.10517924 -0.19996314 0.99591148 -0.082354143 0.043906294 1.0003325 0.018946497
0.1070848 -0.1999726 0.99591768 -0.08549346 0.04480622 1.0019557 0.019585682
0.10898679 -0.19997734 0.99594063 -0.082394503 0.03566495 1.0026172 0.019515909
0.11088998 -0.19998291 0.99598753 -0.081933439 0.024156641 1.0032167 0.019822067
0.11279312 -0.19998845 0.99603003 -0.082974829 0.0088004321 1.0035945 0.020394661
0.12260363 -0.20048684 0.99682081 -0.1146623 -0.10594568 0.99651837 0.026629029
0.1245148 -0.20048827 0.99703962 -0.12035821 -0.12676473 0.99358582 0.027550425
0.1264236 -0.20049378 0.99727893 -0.1232384 -0.14204295 0.99026728 0.028103413
0.12968121 -0.20023896 0.99782044 -0.097407006 -0.15285945 0.98587698 0.029871749
0.13158034 -0.20031299 0.99796307 -0.096810088 -0.15943503 0.98446882 0.03056182
0.13401376 -0.20056234 0.99807841 -0.094524808 -0.1519558 0.98522961 0.030438112
0.1359081 -0.20057881 0.99817818 -0.075064734 -0.14787306 0.98639089 0.032352906
-0.048386279 -0.1936921 0.9818244 0.28936675 -0.17303492 0.99724817 0.029000869
-0.045439344 -0.19402358 0.98042905 0.29957232 -0.25470307 0.94252872 0.03157242
-0.042652491 -0.19436528 0.97914088 0.297499 -0.31660509 0.90759623 0.034432478
-0.040018145 -0.19472428 0.97812349 0.2970767 -0.36098069 0.88675326 0.036747817
-0.038247261 -0.19455457 0.97773004 0.28323013 -0.37236127 0.88824695 0.037695244
-0.035871826 -0.19487184 0.97709042 0.25489098 -0.37556908 0.89769626 0.038723305
-0.034125373 -0.19474785 0.97690547 0.22523041 -0.36396062 0.91149008 0.039741036
-0.032354508 -0.19466758 0.97680759 0.18374491 -0.34471598 0.92757559 0.040142991
-0.030553626 -0.1946232 0.97683859 0.13864349 -0.31551978 0.94377023 0.040975809
-0.028754542 -0.19460928 0.97693163 0.09242098 -0.2883642 0.95638263 0.040869772
-0.027096877 -0.19414349 0.97709715 0.061225891 -0.27875188 0.96032602 0.040595919
-0.025128052 -0.1942775 0.97726715 0.02041154 -0.24988644 0.96916008 0.041740272
-0.023204854 -0.1943965 0.9775036 -0.011121856 -0.22582045 0.97473454 0.04163073
-0.021293333 -0.19450709 0.97780603 -0.040048737 -0.20598085 0.97826421 0.04132355
-0.019394565 -0.19463244 0.97816795 -0.066389404 -0.1871001 0.9806608 0.040441304
-0.017510056 -0.19472615 0.97853041 -0.086885028 -0.17247388 0.98207003 0.038774628
-0.01565703 -0.19483304 0.97894323 -0.10147795 -0.15965489 0.98304093 0.037317239
-0.01382045 -0.19493178 0.97937143 -0.10964292 -0.14832336 0.98425794 0.035413966
-0.01199298 -0.19501516 0.97977841 -0.11143919 -0.14003973 0.98578972 0.033945505
-0.010168164 -0.19509006 0.98014098 -0.10770418 -0.13126718 0.98804063 0.033428248
-0.0083371894 -0.19514994 0.98043674 -0.10114657 -0.12234594 0.99077487 0.033264898
-0.0065062479 -0.19521005 0.98072422 -0.091163434 -0.11377455 0.99335563 0.033510547
-0.004353398 -0.19520091 0.9810034 -0.076893941 -0.11253936 0.99670744 0.031298108
-0.0025312172 -0.19524373 0.98120898 -0.063331656 -0.10422969 0.99973726 0.030831106
-0.00069971004 -0.19529425 0.98138726 -0.050882582 -0.093076929 1.0025541 0.030557437
0.0011345709 -0.19533086 0.98153907 -0.038944807 -0.081800707 1.0054324 0.029968534
0.0029815957 -0.19537489 0.98172164 -0.028895358 -0.070752151 1.0080905 0.029154988
0.0048465952 -0.19539666 0.98177904 -0.019876407 -0.061257578 1.0100594 0.028978059
0.006478203 -0.19542629 0.98176587 -0.014570187 -0.049676258 1.0133342 0.029405328
0.0083399694 -0.19543651 0.98179889 -0.0041118311 -0.040420067 1.0172062 0.028776985
0.010497618 -0.19537941 0.98181617 0.014713649 -0.027938049 1.0229501 0.027501093
0.012079849 -0.19542426 0.98171031 0.025319286 -0.015475614 1.0276911 0.028666023
0.013961365 -0.19539624 0.98155349 0.040084161 -0.0040648077 1.034747 0.027864492
0.015847029 -0.19535848 0.98137778 0.060061246 0.0098071694 1.0421885 0.027167773
0.017736536 -0.19530618 0.98116159 0.084744588 0.030354336 1.0504278 0.026812661
0.019634021 -0.19522431 0.98083955 0.10304122 0.0477373 1.0577576 0.026134575
0.021528862 -0.19513005 0.9804917 0.12794803 0.066594444 1.0659509 0.025245233
0.023431294 -0.19501203 0.98006243 0.14066607 0.09407074 1.0755481 0.024988692
0.025020989 -0.19513211 0.97970742 0.14206482 0.11912735 1.0818447 0.025056869
0.026927602 -0.19500631 0.97925335 0.14233412 0.15780747 1.0898755 0.024775341
0.028815972 -0.19489062 0.97885692 0.13148028 0.20762067 1.0980147 0.025846876
0.030676 -0.19481957 0.97859538 0.10020266 0.25373015 1.1114129 0.029567696
0.09944506 -0.19802335 0.99590063 -0.035931244 -0.055982821 1.0019916 0.014987499
0.10090718 -0.19737102 0.99581313 -0.054487742 -0.029381948 0.9994297 0.015757198
0.10287546 -0.19740875 0.99577051 -0.067736998 -0.0064824503 0.99867231 0.016676167
0.10517777 -0.19805135 0.9957611 -0.081227995 0.016886404 0.9991836 0.018072668
0.10708132 -0.1980613 0.99575883 -0.091120094 0.02622412 1.0004201 0.019029913
0.1089853 -0.19807203 0.99579597 -0.095992625 0.029927712 1.0022067 0.01975219
0.11088838 -0.19808061 0.99584818 -0.099272266 0.02339606 1.0035166 0.020349272
0.11279077 -0.19808865 0.99592358 -0.10378081 0.011005341 1.0042508 0.021069845
0.11494568 -0.19856778 0.99604249 -0.10687076 -0.0084601529 1.0043998 0.022390986
0.1245215 -0.19859198 0.99723369 -0.14142255 -0.096615717 0.99394959 0.027802782
0.12642679 -0.19860412 0.99749523 -0.13646151 -0.10535812 0.99127907 0.027916443
-0.045285292 -0.19230829 0.98082906 0.27947357 -0.21069457 0.97643584 0.032912776
-0.042447742 -0.19278674 0.97977495 0.2946901 -0.28732452 0.92455637 0.035950273
-0.039815646 -0.19321258 0.97887903 0.30309314 -0.34325659 0.89392304 0.038563617
-0.038072895 -0.19303565 0.97853088 0.29427868 -0.3600187 0.89128339 0.039740179
-0.035708755 -0.19334705 0.97798413 0.2748673 -0.35826129 0.90039605 0.042601388
-0.034019824 -0.19317219 0.97780043 0.24566622 -0.34167415 0.91726232 0.044058155
-0.032262407 -0.19305238 0.97768086 0.20371415 -0.3171601 0.93426341 0.04554496
-0.030508734 -0.19295813 0.97766507 0.15644874 -0.28511211 0.95198864 0.046186827
-0.028718792 -0.19290082 0.97771108 0.11222938 -0.25352839 0.96488845 0.047134522
-0.027089728 -0.19256167 0.9778083 0.07499212 -0.24074556 0.9707821 0.045465954
-0.025144327 -0.19267233 0.97792906 0.034330443 -0.20908207 0.97937924 0.046466999
-0.023218712 -0.19277924 0.97814566 -0.0021033296 -0.18207753 0.98479402 0.046554796
-0.021330941 -0.19287932 0.97841054 -0.029586058 -0.15981996 0.98785299 0.047181379
-0.019447438 -0.19296944 0.97872657 -0.055400982 -0.14073537 0.9896878 0.046660915
-0.017569702 -0.19305272 0.97908854 -0.077185467 -0.12410565 0.99084139 0.045092545
-0.015722599 -0.19313873 0.97952408 -0.092628404 -0.11117497 0.99147886 0.04325185
-0.013885497 -0.1932088 0.97991574 -0.10150994 -0.09763249 0.99288386 0.040701319
-0.012060042 -0.19327538 0.98029566 -0.10170219 -0.087068141 0.99467212 0.039138608
-0.010233061 -0.19333687 0.98064947 -0.098031096 -0.075403772 0.99714154 0.038585506
-0.0083995732 -0.19338472 0.98092753 -0.089976467 -0.064162739 0.99997211 0.038318578
-0.0065602758 -0.19342579 0.98117042 -0.078892641 -0.053562853 1.0026007 0.038267139
-0.0047126282 -0.19345927 0.98137403 -0.065707318 -0.042441662 1.0053847 0.037829794
-0.0028592267 -0.1934901 0.98156035 -0.052150868 -0.030874567 1.0082809 0.037824918
-0.00074411434 -0.19357476 0.98171848 -0.036062952 -0.027364451 1.0118161 0.035152961
0.0010969123 -0.19360891 0.98184508 -0.023806373 -0.015832042 1.0135514 0.033891328
0.0029486362 -0.19364411 0.98200643 -0.014207038 -0.003863516 1.0155044 0.032578114
0.0048165354 -0.19364835 0.98206103 -0.0061734039 0.0069350735 1.0183157 0.03162678
0.0066985991 -0.19364452 0.98206353 0.0033839147 0.016529823 1.0213581 0.030790506
0.0085794041 -0.19364351 0.98207504 0.017198363 0.027677201 1.0249904 0.029925309
0.010463623 -0.19362988 0.9820165 0.034067124 0.042502109 1.0295719 0.030323049
0.012069521 -0.19356547 0.98189473 0.048345875 0.057479523 1.0360314 0.030854622
0.01395061 -0.19353592 0.98172122 0.068347491 0.076342933 1.0428934 0.03083677
0.015842028 -0.19349213 0.98147565 0.089907937 0.092378214 1.0495173 0.029999498
0.017737418 -0.19343279 0.98117381 0.11486849 0.10991613 1.0558131 0.029101171
0.019634392 -0.19335526 0.98080319 0.14107294 0.12660101 1.062219 0.027989306
0.021527963 -0.19325998 0.98038501 0.17090066 0.14258918 1.0693067 0.026879949
0.023421936 -0.19314039 0.97987849 0.1878656 0.16008767 1.0749966 0.025711507
0.025083704 -0.19313255 0.9794029 0.20442128 0.18877174 1.0812494 0.025227226
0.026989177 -0.19299257 0.97879982 0.21258081 0.21946239 1.0844907 0.023893202
0.028866159 -0.19285806 0.97823089 0.20342331 0.27037606 1.094433 0.024962679
0.030750787 -0.19273475 0.97766989 0.20343168 0.32584542 1.1021397 0.026328936
0.098035403 -0.19684002 0.9960925 0.00080396299 -0.12498457 1.0097469 0.013709151
0.09944015 -0.19611341 0.99596304 -0.027141539 -0.092850111 1.0054905 0.014574403
0.10135985 -0.19612922 0.99583012 -0.047681957 -0.057690144 1.0013835 0.015529558
0.1032711 -0.19613862 0.99578333 -0.059447065 -0.037737783 1.0000082 0.016098311
0.10552208 -0.19677654 0.99569029 -0.071876414 -0.010757932 0.99964011 0.017028216
0.10739747 -0.19674808 0.99565411 -0.083266482 0.00090002798 1.0002286 0.017719656
