# .PCD v0.7 - Point Cloud Data file format
VERSION 0.7
FIELDS x y z rgb
SIZE 4 4 4 4
TYPE F F F F
COUNT 1 1 1 1
WIDTH 988
HEIGHT 1
VIEWPOINT 0 0 0 1 0 0 0
POINTS 988
DATA ascii
0.044357147 -0.21411906 0.57500005 1.7243156e-38
0.045452382 -0.21411906 0.57500005 1.7335351e-38
0.046628572 -0.21449144 0.57600003 1.7427184e-38
0.047725718 -0.21449144 0.57600003 1.7427184e-38
0.048822861 -0.21449144 0.57600003 1.7427184e-38
0.049920004 -0.21449144 0.57600003 1.751938e-38
0.051105715 -0.21486382 0.57700002 1.751938e-38
0.052204765 -0.21486382 0.57700002 1.7427184e-38
0.053303812 -0.21486382 0.57700002 1.7058401e-38
0.054402858 -0.21486382 0.57700002 1.7427184e-38
0.055598095 -0.21523619 0.57800001 1.7427547e-38
0.056699049 -0.21523619 0.57800001 1.7335351e-38
0.057800002 -0.21523619 0.57800001 1.7518296e-38
0.058900952 -0.21523619 0.57800001 1.7702688e-38
0.060001906 -0.21523619 0.57800001 1.7611211e-38
0.06110286 -0.21523619 0.57800001 1.7611211e-38
0.062311437 -0.2156086 0.57900006 1.7426828e-38
0.063414291 -0.2156086 0.57900006 1.7334632e-38
0.064628579 -0.21598096 0.58000004 1.7427184e-38
0.065733336 -0.21598096 0.58000004 1.7334988e-38
0.067068577 -0.21672572 0.58200002 1.733534e-38
0.068294287 -0.2170981 0.583 1.733534e-38
0.069523819 -0.2174705 0.58400005 1.7334988e-38
0.070757151 -0.21784288 0.58500004 1.7334988e-38
0.07187143 -0.21784288 0.58500004 1.7334269e-38
0.073110484 -0.21821524 0.58600003 1.7242074e-38
0.07422667 -0.21821524 0.58600003 1.7242425e-38
0.075471431 -0.21858762 0.58700001 1.7242425e-38
0.076719999 -0.21896 0.588 1.7058401e-38
0.07784 -0.21896 0.588 1.7058401e-38
0.079228573 -0.21970478 0.59000003 1.6873654e-38
0.080624759 -0.22044952 0.59200001 1.6781459e-38
0.081890486 -0.22082192 0.59300005 1.6412676e-38
0.083300002 -0.22156666 0.59500003 1.6504872e-38
0.084575236 -0.22193906 0.59600002 1.6597067e-38
0.085710481 -0.22193906 0.59600002 1.5675111e-38
0.086845718 -0.22193906 0.59600002 1.4570544e-38
-0.042057145 -0.23710477 0.64000005 1.7611205e-38
-0.0408381 -0.23710477 0.64000005 1.6966545e-38
-0.039619051 -0.23710477 0.64000005 1.558361e-38
-0.038400002 -0.23710477 0.64000005 1.4938977e-38
-0.037180953 -0.23710477 0.64000005 1.3463847e-38
-0.035961907 -0.23710477 0.64000005 1.3095068e-38
-0.034742858 -0.23710477 0.64000005 1.3463851e-38
-0.033523809 -0.23710477 0.64000005 1.3832636e-38
-0.032304764 -0.23710477 0.64000005 1.7797048e-38
-0.019862859 -0.23414096 0.63200003 1.9824253e-38
-0.018659048 -0.23414096 0.63200003 1.9087065e-38
-0.017455239 -0.23414096 0.63200003 1.7058762e-38
-0.016225714 -0.23377049 0.63100004 1.4938991e-38
-0.015023811 -0.23377049 0.63100004 1.4662404e-38
-0.013821905 -0.23377049 0.63100004 1.6596681e-38
-0.012620001 -0.23377049 0.63100004 1.8256202e-38
-0.011418096 -0.23377049 0.63100004 1.8348068e-38
-0.010216191 -0.23377049 0.63100004 1.7241721e-38
-0.0086000003 -0.22302669 0.60200006 1.5860913e-38
-0.0074409526 -0.22265619 0.60100001 1.4570175e-38
-0.0062857145 -0.22228572 0.60000002 1.4385803e-38
-0.0051342859 -0.22191525 0.59900004 1.4477999e-38
-0.0039866669 -0.22154479 0.59800005 1.4385796e-38
-0.0028428573 -0.22117428 0.597 1.4477992e-38
-0.0017028572 -0.22080381 0.59600002 1.4661315e-38
-0.00056571432 -0.22006287 0.59400004 1.4845706e-38
0.00056380953 -0.21932191 0.59200001 1.4938254e-38
0.0016885714 -0.21895143 0.59100002 1.4846058e-38
0.0028095241 -0.21858096 0.59000003 1.4753871e-38
0.0039266669 -0.21821049 0.58900005 1.4846066e-38
0.0050399997 -0.21783999 0.588 1.4938265e-38
0.0061495239 -0.21746953 0.58700001 1.503046e-38
0.0072552385 -0.21709906 0.58600003 1.5030458e-38
0.0083714286 -0.21709906 0.58600003 1.5030458e-38
0.0094714295 -0.21672858 0.58500004 1.5214133e-38
0.010567619 -0.21635811 0.58400005 1.5398524e-38
0.01166 -0.21598762 0.583 1.5307399e-38
0.012748572 -0.21561715 0.58200002 1.5399595e-38
0.013833334 -0.21524668 0.58100003 1.549179e-38
0.014914286 -0.2148762 0.58000004 1.5676182e-38
0.016019048 -0.2148762 0.58000004 1.5768014e-38
0.017094286 -0.21450573 0.57900006 1.586021e-38
0.018197145 -0.21450573 0.57900006 1.5859854e-38
0.019300001 -0.21450573 0.57900006 1.5859854e-38
0.02040286 -0.21450573 0.57900006 1.5859858e-38
0.02146857 -0.21413524 0.57800001 1.6320836e-38
0.022569524 -0.21413524 0.57800001 1.6228636e-38
0.023629524 -0.21376476 0.57700002 1.6136441e-38
0.024685716 -0.2133943 0.57600003 1.6320836e-38
0.025782859 -0.2133943 0.57600003 1.6689619e-38
0.02688 -0.2133943 0.57600003 1.6505223e-38
0.027928574 -0.21302383 0.57500005 1.6505223e-38
0.028973334 -0.21265332 0.574 1.6597067e-38
0.030066665 -0.21265332 0.574 1.6689263e-38
0.031159999 -0.21265332 0.574 1.6689619e-38
0.032253332 -0.21265332 0.574 1.6689619e-38
0.033346668 -0.21265332 0.574 1.6781459e-38
0.03444 -0.21265332 0.574 1.7058045e-38
0.035533335 -0.21265332 0.574 1.7058397e-38
0.036626667 -0.21265332 0.574 1.7150593e-38
0.037719999 -0.21265332 0.574 1.7150597e-38
0.038813334 -0.21265332 0.574 1.7242793e-38
0.039906666 -0.21265332 0.574 1.7334988e-38
0.041071434 -0.21302383 0.57500005 1.751938e-38
0.042240001 -0.2133943 0.57600003 1.7334635e-38
0.043261908 -0.21302383 0.57500005 1.724244e-38
0.044357147 -0.21302383 0.57500005 1.7242805e-38
0.045531429 -0.2133943 0.57600003 1.7335001e-38
0.046628572 -0.2133943 0.57600003 1.7334988e-38
0.047725718 -0.2133943 0.57600003 1.7334988e-38
0.048822861 -0.2133943 0.57600003 1.7427184e-38
0.050006669 -0.21376476 0.57700002 1.7427184e-38
0.051105715 -0.21376476 0.57700002 1.7519024e-38
0.052204765 -0.21376476 0.57700002 1.7519024e-38
0.053303812 -0.21376476 0.57700002 1.7334632e-38
0.054402858 -0.21376476 0.57700002 1.7334632e-38
0.055598095 -0.21413524 0.57800001 1.7426834e-38
0.056699049 -0.21413524 0.57800001 1.7426834e-38
0.057800002 -0.21413524 0.57800001 1.7518661e-38
0.058900952 -0.21413524 0.57800001 1.7610856e-38
0.060001906 -0.21413524 0.57800001 1.7518661e-38
0.061208576 -0.21450573 0.57900006 1.7518661e-38
0.062311437 -0.21450573 0.57900006 1.7426828e-38
0.063523814 -0.2148762 0.58000004 1.7426828e-38
0.064628579 -0.2148762 0.58000004 1.7334988e-38
0.065846667 -0.21524668 0.58100003 1.7242793e-38
0.067068577 -0.21561715 0.58200002 1.7242425e-38
0.068294287 -0.21598762 0.583 1.7426817e-38
0.069523819 -0.21635811 0.58400005 1.7334269e-38
0.070757151 -0.21672858 0.58500004 1.7334269e-38
0.07187143 -0.21672858 0.58500004 1.7242077e-38
0.073110484 -0.21709906 0.58600003 1.7242077e-38
0.07422667 -0.21709906 0.58600003 1.7242428e-38
0.075471431 -0.21746953 0.58700001 1.7242428e-38
0.076719999 -0.21783999 0.588 1.7150593e-38
0.07797239 -0.21821049 0.58900005 1.6874006e-38
0.079362854 -0.21895143 0.59100002 1.6781459e-38
0.080760963 -0.21969239 0.59300005 1.6689263e-38
0.082028575 -0.22006287 0.59400004 1.6321199e-38
0.083300002 -0.22043335 0.59500003 1.6321199e-38
0.084575236 -0.22080381 0.59600002 1.6413381e-38
0.085854284 -0.22117428 0.597 1.5860207e-38
0.087137155 -0.22154479 0.59800005 1.4846795e-38
-0.04212286 -0.2362543 0.64100003 1.6689249e-38
-0.040901907 -0.2362543 0.64100003 1.6320832e-38
-0.039680954 -0.2362543 0.64100003 1.5583267e-38
-0.038460001 -0.2362543 0.64100003 1.5030446e-38
-0.037239049 -0.2362543 0.64100003 1.3647512e-38
-0.036018096 -0.2362543 0.64100003 1.3002496e-38
-0.034742858 -0.23588574 0.64000005 1.3463474e-38
-0.033523809 -0.23588574 0.64000005 1.4017037e-38
-0.032304764 -0.23588574 0.64000005 1.8350232e-38
-0.018659048 -0.23293716 0.63200003 1.9271092e-38
-0.01742762 -0.23256859 0.63100004 1.8810114e-38
-0.016225714 -0.23256859 0.63100004 1.5953881e-38
-0.015023811 -0.23256859 0.63100004 1.429436e-38
-0.013821905 -0.23256859 0.63100004 1.5307011e-38
-0.012620001 -0.23256859 0.63100004 1.7796293e-38
-0.011418096 -0.23256859 0.63100004 1.8071484e-38
-0.0097790482 -0.22261715 0.60400003 1.7149528e-38
-0.0086285714 -0.22261715 0.60400003 1.4848576e-38
-0.0074533341 -0.22188002 0.60200006 1.4111011e-38
-0.0062961904 -0.22151144 0.60100001 1.4478003e-38
-0.0051342859 -0.22077431 0.59900004 1.4017025e-38
-0.0039866669 -0.22040574 0.59800005 1.3832269e-38
-0.0028476194 -0.22040574 0.59800005 1.4477638e-38
-0.0017057143 -0.22003715 0.597 1.4661315e-38
-0.00056666671 -0.21930002 0.59500003 1.4845706e-38
0.00056380953 -0.21819429 0.59200001 1.4754225e-38
0.0016885714 -0.21782573 0.59100002 1.4754225e-38
0.0028095241 -0.21745716 0.59000003 1.4753871e-38
0.0039266669 -0.2170886 0.58900005 1.4938262e-38
0.0050399997 -0.21672 0.588 1.4938262e-38
0.0061495239 -0.21635143 0.58700001 1.5030458e-38
0.007267619 -0.21635143 0.58700001 1.5030458e-38
0.0083857141 -0.21635143 0.58700001 1.5122653e-38
0.0094714295 -0.2156143 0.58500004 1.5214849e-38
0.010567619 -0.21524574 0.58400005 1.5307045e-38
0.01166 -0.21487714 0.583 1.5307396e-38
0.012748572 -0.21450858 0.58200002 1.5399592e-38
0.013833334 -0.21414001 0.58100003 1.5675463e-38
0.014940001 -0.21414001 0.58100003 1.5767658e-38
0.016019048 -0.21377145 0.58000004 1.586021e-38
0.017123811 -0.21377145 0.58000004 1.586021e-38
0.018228572 -0.21377145 0.58000004 1.6043163e-38
0.019300001 -0.21340288 0.57900006 1.6043163e-38
0.02040286 -0.21340288 0.57900006 1.5951335e-38
0.021505715 -0.21340288 0.57900006 1.6227922e-38
0.022608573 -0.21340288 0.57900006 1.6228274e-38
0.023670476 -0.21303429 0.57800001 1.6320469e-38
0.024728572 -0.21266572 0.57700002 1.650486e-38
0.025782859 -0.21229716 0.57600003 1.6597056e-38
0.02688 -0.21229716 0.57600003 1.6228641e-38
0.027977144 -0.21229716 0.57600003 1.6505228e-38
0.029023811 -0.21192859 0.57500005 1.6597423e-38
0.030119048 -0.21192859 0.57500005 1.6781814e-38
0.031214288 -0.21192859 0.57500005 1.678145e-38
0.032253332 -0.21156 0.574 1.678145e-38
0.033346668 -0.21156 0.574 1.6689619e-38
0.03444 -0.21156 0.574 1.6966206e-38
0.035533335 -0.21156 0.574 1.6874006e-38
0.036626667 -0.21156 0.574 1.7058397e-38
0.037719999 -0.21156 0.574 1.7058401e-38
0.038813334 -0.21156 0.574 1.7334988e-38
0.039906666 -0.21156 0.574 1.7334988e-38
0.041071434 -0.21192859 0.57500005 1.7427184e-38
0.042240001 -0.21229716 0.57600003 1.7242437e-38
0.043337144 -0.21229716 0.57600003 1.7242437e-38
0.044434287 -0.21229716 0.57600003 1.7058048e-38
0.045531429 -0.21229716 0.57600003 1.7334635e-38
0.046709526 -0.21266572 0.57700002 1.7426465e-38
0.047725718 -0.21229716 0.57600003 1.7518661e-38
0.048822861 -0.21229716 0.57600003 1.742718e-38
0.050006669 -0.21266572 0.57700002 1.742718e-38
0.051105715 -0.21266572 0.57700002 1.7702699e-38
0.052204765 -0.21266572 0.57700002 1.7610503e-38
0.053303812 -0.21266572 0.57700002 1.742718e-38
0.054402858 -0.21266572 0.57700002 1.742718e-38
0.055598095 -0.21303429 0.57800001 1.7426834e-38
0.056797147 -0.21340288 0.57900006 1.7611225e-38
0.057800002 -0.21303429 0.57800001 1.7611571e-38
0.058900952 -0.21303429 0.57800001 1.7611571e-38
0.060105722 -0.21340288 0.57900006 1.7427184e-38
0.061208576 -0.21340288 0.57900006 1.7427184e-38
0.062419057 -0.21377145 0.58000004 1.751938e-38
0.063523814 -0.21377145 0.58000004 1.7427184e-38
0.064740002 -0.21414001 0.58100003 1.7427184e-38
0.065846667 -0.21414001 0.58100003 1.7334988e-38
0.067068577 -0.21450858 0.58200002 1.7426814e-38
0.068411432 -0.21524574 0.58400005 1.751901e-38
0.069523819 -0.21524574 0.58400005 1.7426465e-38
0.070757151 -0.2156143 0.58500004 1.7334269e-38
0.07187143 -0.2156143 0.58500004 1.7150597e-38
0.073110484 -0.21598287 0.58600003 1.7150597e-38
0.07435333 -0.21635143 0.58700001 1.7150597e-38
0.075599998 -0.21672 0.588 1.7150597e-38
0.076850481 -0.2170886 0.58900005 1.7058048e-38
0.078104764 -0.21745716 0.59000003 1.7058048e-38
0.079362854 -0.21782573 0.59100002 1.687401e-38
0.080760963 -0.21856289 0.59300005 1.6781814e-38
0.082028575 -0.21893145 0.59400004 1.6597067e-38
0.083160006 -0.21893145 0.59400004 1.6597067e-38
0.084717147 -0.22003715 0.597 1.6597775e-38
0.085998096 -0.22040574 0.59800005 1.5768014e-38
0.087137155 -0.22040574 0.59800005 1.4754936e-38
-0.04218857 -0.23540001 0.64200002 1.659776e-38
-0.040965714 -0.23540001 0.64200002 1.6229004e-38
-0.039742857 -0.23540001 0.64200002 1.5583634e-38
-0.038520001 -0.23540001 0.64200002 1.5030444e-38
-0.037297145 -0.23540001 0.64200002 1.4016292e-38
-0.036074288 -0.23540001 0.64200002 1.3648605e-38
-0.034797143 -0.23503335 0.64100003 1.4201779e-38
-0.03357619 -0.23503335 0.64100003 1.4294735e-38
-0.01742762 -0.23136668 0.63100004 1.9640581e-38
-0.016225714 -0.23136668 0.63100004 1.8349161e-38
-0.015023811 -0.23136668 0.63100004 1.4937927e-38
-0.013821905 -0.23136668 0.63100004 1.4570522e-38
-0.012620001 -0.23136668 0.63100004 1.6322239e-38
-0.011418096 -0.23136668 0.63100004 1.6965137e-38
-0.0097790482 -0.22146668 0.60400003 1.6135376e-38
-0.0086285714 -0.22146668 0.60400003 1.503116e-38
-0.0074657151 -0.22110002 0.60300004 1.438579e-38
-0.0063066673 -0.22073334 0.60200006 1.4478003e-38
-0.0051428573 -0.22000001 0.60000002 1.4201416e-38
-0.0039933338 -0.21963336 0.59900004 1.42007e-38
-0.0028476194 -0.21926668 0.59800005 1.4569482e-38
-0.0017057143 -0.2189 0.597 1.4661315e-38
-0.00056761905 -0.21853334 0.59600002 1.4661315e-38
0.00056476193 -0.21743335 0.59300005 1.4661315e-38
0.0016885714 -0.2167 0.59100002 1.4753511e-38
0.0028095241 -0.21633334 0.59000003 1.4753155e-38
0.0039266669 -0.21596667 0.58900005 1.4937546e-38
0.0050399997 -0.2156 0.588 1.5030098e-38
0.0061495239 -0.21523334 0.58700001 1.5030098e-38
0.007267619 -0.21523334 0.58700001 1.5029742e-38
0.0083857141 -0.21523334 0.58700001 1.5121937e-38
0.0094876196 -0.21486668 0.58600003 1.5214489e-38
0.010567619 -0.21413335 0.58400005 1.539888e-38
0.01168 -0.21413335 0.58400005 1.5307396e-38
0.012748572 -0.21340001 0.58200002 1.5307396e-38
0.013857143 -0.21340001 0.58200002 1.5399595e-38
0.014940001 -0.21303335 0.58100003 1.5676182e-38
0.016019048 -0.21266668 0.58000004 1.5768014e-38
0.017123811 -0.21266668 0.58000004 1.5768014e-38
0.018228572 -0.21266668 0.58000004 1.5767663e-38
0.019300001 -0.21230002 0.57900006 1.5859858e-38
0.02040286 -0.21230002 0.57900006 1.5859142e-38
0.021505715 -0.21230002 0.57900006 1.6227925e-38
0.022608573 -0.21230002 0.57900006 1.6136797e-38
0.023670476 -0.21193333 0.57800001 1.6413384e-38
0.024728572 -0.21156667 0.57700002 1.6504858e-38
0.025782859 -0.21120001 0.57600003 1.6504858e-38
0.02688 -0.21120001 0.57600003 1.632048e-38
0.027977144 -0.21120001 0.57600003 1.6504872e-38
0.029023811 -0.21083334 0.57500005 1.6597067e-38
0.030119048 -0.21083334 0.57500005 1.6781459e-38
0.031214288 -0.21083334 0.57500005 1.6689619e-38
0.032309525 -0.21083334 0.57500005 1.6781814e-38
0.033404768 -0.21083334 0.57500005 1.7058034e-38
0.034500003 -0.21083334 0.57500005 1.715023e-38
0.035595242 -0.21083334 0.57500005 1.7058397e-38
0.036690477 -0.21083334 0.57500005 1.7150593e-38
0.037719999 -0.21046667 0.574 1.7242074e-38
0.038813334 -0.21046667 0.574 1.7426465e-38
0.039906666 -0.21046667 0.574 1.742682e-38
0.041071434 -0.21083334 0.57500005 1.7519015e-38
0.042240001 -0.21120001 0.57600003 1.7334988e-38
0.043337144 -0.21120001 0.57600003 1.7334988e-38
0.04451143 -0.21156667 0.57700002 1.7334988e-38
0.04561048 -0.21156667 0.57700002 1.7242793e-38
0.046709526 -0.21156667 0.57700002 1.7334988e-38
0.047808573 -0.21156667 0.57700002 1.7427184e-38
0.048907619 -0.21156667 0.57700002 1.7427184e-38
0.050093334 -0.21193333 0.57800001 1.751938e-38
0.051194288 -0.21193333 0.57800001 1.770342e-38
0.052295238 -0.21193333 0.57800001 1.7519029e-38
0.053396191 -0.21193333 0.57800001 1.7334984e-38
0.054497141 -0.21193333 0.57800001 1.7611571e-38
0.05569429 -0.21230002 0.57900006 1.7519392e-38
0.056797147 -0.21230002 0.57900006 1.7519392e-38
0.057900004 -0.21230002 0.57900006 1.7611571e-38
0.059002861 -0.21230002 0.57900006 1.7703767e-38
0.060105722 -0.21230002 0.57900006 1.7519375e-38
0.061208576 -0.21230002 0.57900006 1.7519375e-38
0.062419057 -0.21266668 0.58000004 1.7519375e-38
0.063633338 -0.21303335 0.58100003 1.742718e-38
0.064740002 -0.21303335 0.58100003 1.7427184e-38
0.065960005 -0.21340001 0.58200002 1.7427184e-38
0.067183807 -0.21376666 0.583 1.7519015e-38
0.068411432 -0.21413335 0.58400005 1.7887798e-38
0.069642864 -0.21450002 0.58500004 1.7519015e-38
0.070757151 -0.21450002 0.58500004 1.7242428e-38
0.07199429 -0.21486668 0.58600003 1.7150241e-38
0.073235244 -0.21523334 0.58700001 1.7334632e-38
0.07435333 -0.21523334 0.58700001 1.7058045e-38
0.075599998 -0.2156 0.588 1.7058045e-38
0.076850481 -0.21596667 0.58900005 1.7150244e-38
0.078104764 -0.21633334 0.59000003 1.7058048e-38
0.079362854 -0.2167 0.59100002 1.6781464e-38
0.080760963 -0.21743335 0.59300005 1.6781464e-38
0.082028575 -0.21780002 0.59400004 1.6689263e-38
0.083160006 -0.21780002 0.59400004 1.6689263e-38
0.084717147 -0.2189 0.597 1.6597423e-38
0.086429521 -0.22036667 0.60100001 1.5583271e-38
0.087720007 -0.22073334 0.60200006 1.4571989e-38
0.089014292 -0.22110002 0.60300004 1.5862728e-38
0.090611428 -0.22219999 0.60600001 1.7152039e-38
-0.043546669 -0.23490669 0.64400005 1.8072183e-38
-0.042254284 -0.23454189 0.64300001 1.6412662e-38
-0.040965714 -0.23417714 0.64200002 1.6043896e-38
-0.039742857 -0.23417714 0.64200002 1.5490723e-38
-0.038520001 -0.23417714 0.64200002 1.5031165e-38
-0.037297145 -0.23417714 0.64200002 1.4109209e-38
-0.036074288 -0.23417714 0.64200002 1.346529e-38
-0.034905713 -0.23454189 0.64300001 1.4663833e-38
-0.016225714 -0.23016478 0.63100004 1.8810491e-38
-0.015023811 -0.23016478 0.63100004 1.5583644e-38
-0.013821905 -0.23016478 0.63100004 1.4110285e-38
-0.012620001 -0.23016478 0.63100004 1.5677611e-38
-0.011418096 -0.23016478 0.63100004 1.6413395e-38
-0.0097790482 -0.2203162 0.60400003 1.5860221e-38
-0.0086285714 -0.2203162 0.60400003 1.4570913e-38
-0.0074657151 -0.21995145 0.60300004 1.4386522e-38
-0.0063066673 -0.21958669 0.60200006 1.4845342e-38
-0.0051428573 -0.21885714 0.60000002 1.4476559e-38
-0.0039933338 -0.21849239 0.59900004 1.4292532e-38
-0.0028476194 -0.21812762 0.59800005 1.4661315e-38
-0.0017057143 -0.21776286 0.597 1.4661667e-38
-0.00056761905 -0.21739809 0.59600002 1.4661667e-38
0.00056476193 -0.21630383 0.59300005 1.4568749e-38
0.0016914286 -0.21593906 0.59200001 1.4568749e-38
0.0028095241 -0.21520954 0.59000003 1.4569115e-38
0.0039266669 -0.21484478 0.58900005 1.4937898e-38
0.0050399997 -0.21448 0.588 1.5030098e-38
0.0061599999 -0.21448 0.588 1.5030098e-38
0.00728 -0.21448 0.588 1.5029742e-38
0.0083857141 -0.21411523 0.58700001 1.5214133e-38
0.0095038097 -0.21411523 0.58700001 1.5215201e-38
0.010585715 -0.21338572 0.58500004 1.5307396e-38
0.01168 -0.21302097 0.58400005 1.5490709e-38
0.012770477 -0.21265619 0.583 1.5490709e-38
0.013880952 -0.21265619 0.583 1.5307399e-38
0.014940001 -0.21192667 0.58100003 1.5676182e-38
0.016046667 -0.21192667 0.58100003 1.5768014e-38
0.017123811 -0.21156192 0.58000004 1.5768014e-38
0.018228572 -0.21156192 0.58000004 1.5859854e-38
0.019333335 -0.21156192 0.58000004 1.5767658e-38
0.02040286 -0.21119715 0.57900006 1.5767307e-38
0.021505715 -0.21119715 0.57900006 1.6136089e-38
0.022608573 -0.21119715 0.57900006 1.6228992e-38
0.023670476 -0.21083239 0.57800001 1.6413384e-38
0.024728572 -0.21046762 0.57700002 1.6413384e-38
0.025782859 -0.21010287 0.57600003 1.6413384e-38
0.02688 -0.21010287 0.57600003 1.6320836e-38
0.027977144 -0.21010287 0.57600003 1.6597423e-38
0.029074287 -0.21010287 0.57600003 1.6781459e-38
0.03017143 -0.21010287 0.57600003 1.6781459e-38
0.031268571 -0.21010287 0.57600003 1.6689263e-38
0.032365713 -0.21010287 0.57600003 1.696585e-38
0.03346286 -0.21010287 0.57600003 1.7058753e-38
0.034560002 -0.21010287 0.57600003 1.7150949e-38
0.035657145 -0.21010287 0.57600003 1.7150593e-38
0.036754288 -0.21010287 0.57600003 1.7150593e-38
0.037785716 -0.20973812 0.57500005 1.7518296e-38
0.038880955 -0.20973812 0.57500005 1.7610492e-38
0.039976191 -0.20973812 0.57500005 1.7518294e-38
0.041142859 -0.21010287 0.57600003 1.7610489e-38
0.042240001 -0.21010287 0.57600003 1.7334988e-38
0.04341238 -0.21046762 0.57700002 1.7334988e-38
0.04451143 -0.21046762 0.57700002 1.7334988e-38
0.04561048 -0.21046762 0.57700002 1.7242793e-38
0.046709526 -0.21046762 0.57700002 1.7426465e-38
0.047808573 -0.21046762 0.57700002 1.7610856e-38
0.048907619 -0.21046762 0.57700002 1.751938e-38
0.050093334 -0.21083239 0.57800001 1.7611575e-38
0.05128286 -0.21119715 0.57900006 1.7611585e-38
0.052385718 -0.21119715 0.57900006 1.7427194e-38
0.053488575 -0.21119715 0.57900006 1.7427184e-38
0.054591436 -0.21119715 0.57900006 1.751938e-38
0.05579048 -0.21156192 0.58000004 1.7611222e-38
0.056895241 -0.21156192 0.58000004 1.7611222e-38
0.058000006 -0.21156192 0.58000004 1.751938e-38
0.059104767 -0.21156192 0.58000004 1.751938e-38
0.060209528 -0.21156192 0.58000004 1.751938e-38
0.061314289 -0.21156192 0.58000004 1.751938e-38
0.062526666 -0.21192667 0.58100003 1.7519024e-38
0.063633338 -0.21192667 0.58100003 1.7519024e-38
0.064851433 -0.21229143 0.58200002 1.7334988e-38
0.065960005 -0.21229143 0.58200002 1.7334988e-38
0.067299053 -0.21302097 0.58400005 1.7334988e-38
0.068411432 -0.21302097 0.58400005 1.7427184e-38
0.069642864 -0.21338572 0.58500004 1.7334632e-38
0.070878096 -0.21375048 0.58600003 1.7242437e-38
0.07199429 -0.21375048 0.58600003 1.7242437e-38
0.073235244 -0.21411523 0.58700001 1.7150241e-38
0.074480005 -0.21448 0.588 1.7058401e-38
0.07572858 -0.21484478 0.58900005 1.7058401e-38
0.076980956 -0.21520954 0.59000003 1.7150244e-38
0.078104764 -0.21520954 0.59000003 1.7058048e-38
0.079362854 -0.21557429 0.59100002 1.6689266e-38
0.080760963 -0.21630383 0.59300005 1.6689266e-38
0.082028575 -0.21666858 0.59400004 1.6689263e-38
0.083300002 -0.21703334 0.59500003 1.6781459e-38
0.084859051 -0.21812762 0.59800005 1.6689619e-38
0.086429521 -0.2192219 0.60100001 1.5583271e-38
0.087720007 -0.21958669 0.60200006 1.4386872e-38
0.089014292 -0.21995145 0.60300004 1.6046393e-38
0.090611428 -0.22104572 0.60600001 1.7428266e-38
-0.043546669 -0.23368001 0.64400005 1.7888501e-38
-0.042320006 -0.23368001 0.64400005 1.6136784e-38
-0.041093335 -0.23368001 0.64400005 1.595242e-38
-0.039866671 -0.23368001 0.64400005 1.5122659e-38
-0.038640004 -0.23368001 0.64400005 1.4753874e-38
-0.037355237 -0.23331714 0.64300001 1.4569482e-38
-0.036130477 -0.23331714 0.64300001 1.3926268e-38
-0.034960002 -0.23368001 0.64400005 1.5954572e-38
-0.016225714 -0.22896287 0.63100004 1.9179264e-38
-0.015023811 -0.22896287 0.63100004 1.6966569e-38
-0.013821905 -0.22896287 0.63100004 1.5308126e-38
-0.012620001 -0.22896287 0.63100004 1.4201779e-38
-0.011418096 -0.22896287 0.63100004 1.4754225e-38
-0.0097628571 -0.21880287 0.60300004 1.5123008e-38
-0.0086000003 -0.21844001 0.60200006 1.5030449e-38
-0.0074533341 -0.21844001 0.60200006 1.4846058e-38
-0.0062961904 -0.21807714 0.60100001 1.4845339e-38
-0.0051428573 -0.21771429 0.60000002 1.4292165e-38
-0.0039933338 -0.21735144 0.59900004 1.4292177e-38
-0.0028476194 -0.21698858 0.59800005 1.4660959e-38
-0.0017057143 -0.21662571 0.597 1.4661661e-38
-0.00056857144 -0.21662571 0.597 1.4661661e-38
0.00056571432 -0.21553715 0.59400004 1.4477273e-38
0.0016914286 -0.21481143 0.59200001 1.4661664e-38
0.0028095241 -0.21408571 0.59000003 1.4845702e-38
0.0039266669 -0.21372287 0.58900005 1.4937898e-38
0.0050399997 -0.21336 0.588 1.4937902e-38
0.0061599999 -0.21336 0.588 1.5030098e-38
0.00728 -0.21336 0.588 1.5121937e-38
0.0083999997 -0.21336 0.588 1.5306328e-38
0.0095038097 -0.21299714 0.58700001 1.5214841e-38
0.010585715 -0.21227144 0.58500004 1.5583623e-38
0.01168 -0.21190858 0.58400005 1.5307396e-38
0.012770477 -0.21154571 0.583 1.5307396e-38
0.013880952 -0.21154571 0.583 1.5491071e-38
0.014965715 -0.21118286 0.58200002 1.5675463e-38
0.016046667 -0.21082 0.58100003 1.5675819e-38
0.017153334 -0.21082 0.58100003 1.5675819e-38
0.018228572 -0.21045715 0.58000004 1.5767663e-38
0.019333335 -0.21045715 0.58000004 1.5859858e-38
0.02040286 -0.2100943 0.57900006 1.5951689e-38
0.021505715 -0.2100943 0.57900006 1.6228276e-38
0.022608573 -0.2100943 0.57900006 1.622899e-38
0.023711432 -0.2100943 0.57900006 1.622899e-38
0.024814287 -0.2100943 0.57900006 1.6228641e-38
0.02582762 -0.20936857 0.57700002 1.6505228e-38
0.026926666 -0.20936857 0.57700002 1.6505223e-38
0.028025717 -0.20936857 0.57700002 1.6689615e-38
0.029124763 -0.20936857 0.57700002 1.6781461e-38
0.030223809 -0.20936857 0.57700002 1.6689266e-38
0.031268571 -0.20900571 0.57600003 1.6781459e-38
0.032365713 -0.20900571 0.57600003 1.6873654e-38
0.03346286 -0.20900571 0.57600003 1.7058034e-38
0.034560002 -0.20900571 0.57600003 1.7058034e-38
0.035719048 -0.20936857 0.57700002 1.7058401e-38
0.036818095 -0.20936857 0.57700002 1.7058401e-38
0.03785143 -0.20900571 0.57600003 1.7242074e-38
0.038948573 -0.20900571 0.57600003 1.7334269e-38
0.04004572 -0.20900571 0.57600003 1.742682e-38
0.041214287 -0.20936857 0.57700002 1.7519015e-38
0.042313334 -0.20936857 0.57700002 1.7334988e-38
0.04341238 -0.20936857 0.57700002 1.7242793e-38
0.04451143 -0.20936857 0.57700002 1.7334988e-38
0.04561048 -0.20936857 0.57700002 1.7334988e-38
0.046709526 -0.20936857 0.57700002 1.7334632e-38
0.047808573 -0.20936857 0.57700002 1.7611219e-38
0.048907619 -0.20936857 0.57700002 1.7519375e-38
0.050093334 -0.20973143 0.57800001 1.7519375e-38
0.05128286 -0.2100943 0.57900006 1.7519026e-38
0.052385718 -0.2100943 0.57900006 1.7519026e-38
0.053488575 -0.2100943 0.57900006 1.751938e-38
0.054591436 -0.2100943 0.57900006 1.751938e-38
0.05579048 -0.21045715 0.58000004 1.7427184e-38
0.056993335 -0.21082 0.58100003 1.751938e-38
0.058000006 -0.21045715 0.58000004 1.751938e-38
0.059104767 -0.21045715 0.58000004 1.751938e-38
0.060209528 -0.21045715 0.58000004 1.7426828e-38
0.061420005 -0.21082 0.58100003 1.7426828e-38
0.062526666 -0.21082 0.58100003 1.7519026e-38
0.063742854 -0.21118286 0.58200002 1.7426831e-38
0.064851433 -0.21118286 0.58200002 1.7334984e-38
0.065960005 -0.21118286 0.58200002 1.7334984e-38
0.067299053 -0.21190858 0.58400005 1.7427184e-38
0.068411432 -0.21190858 0.58400005 1.7427184e-38
0.069642864 -0.21227144 0.58500004 1.7518663e-38
0.070878096 -0.2126343 0.58600003 1.7334272e-38
0.07199429 -0.2126343 0.58600003 1.7058048e-38
0.073235244 -0.21299714 0.58700001 1.7058048e-38
0.074480005 -0.21336 0.588 1.7150233e-38
0.07572858 -0.21372287 0.58900005 1.7242428e-38
0.076980956 -0.21408571 0.59000003 1.7150597e-38
0.078104764 -0.21408571 0.59000003 1.6966206e-38
0.079362854 -0.21444857 0.59100002 1.6689266e-38
0.080760963 -0.2151743 0.59300005 1.6689266e-38
0.082166664 -0.2159 0.59500003 1.6689263e-38
0.083300002 -0.2159 0.59500003 1.6689263e-38
0.085284762 -0.21807714 0.60100001 1.6781814e-38
0.08657334 -0.21844001 0.60200006 1.5859858e-38
0.087720007 -0.21844001 0.60200006 1.4756025e-38
0.089014292 -0.21880287 0.60300004 1.6231155e-38
0.090611428 -0.21989143 0.60600001 1.7704853e-38
-0.043546669 -0.23245335 0.64400005 1.733534e-38
-0.042320006 -0.23245335 0.64400005 1.6136797e-38
-0.041093335 -0.23245335 0.64400005 1.6044975e-38
-0.039866671 -0.23245335 0.64400005 1.5123019e-38
-0.038640004 -0.23245335 0.64400005 1.4753506e-38
-0.037413336 -0.23245335 0.64400005 1.447692e-38
-0.03629905 -0.23317525 0.64600003 1.4017739e-38
-0.035122856 -0.2335362 0.64700001 1.7060195e-38
-0.01625143 -0.22812192 0.63200003 1.9364007e-38
-0.015023811 -0.22776097 0.63100004 1.8534246e-38
-0.013821905 -0.22776097 0.63100004 1.5954938e-38
-0.012620001 -0.22776097 0.63100004 1.3834438e-38
-0.011418096 -0.22776097 0.63100004 1.4569119e-38
-0.0097628571 -0.2176543 0.60300004 1.4937902e-38
-0.0086000003 -0.21729335 0.60200006 1.4569834e-38
-0.0074533341 -0.21729335 0.60200006 1.4754225e-38
-0.0062961904 -0.21693239 0.60100001 1.4753506e-38
-0.0051428573 -0.21657144 0.60000002 1.4292528e-38
-0.0039933338 -0.21621048 0.59900004 1.4476557e-38
-0.0028476194 -0.21584953 0.59800005 1.4660948e-38
-0.0017057143 -0.21548857 0.597 1.4570187e-38
-0.00056761905 -0.21512762 0.59600002 1.4662383e-38
0.00056476193 -0.21404478 0.59300005 1.4661664e-38
0.0016914286 -0.2136838 0.59200001 1.4846055e-38
0.0028142859 -0.21332286 0.59100002 1.4937898e-38
0.0039266669 -0.21260096 0.58900005 1.4937898e-38
0.0050399997 -0.21224 0.588 1.4937902e-38
0.0061599999 -0.21224 0.588 1.4937902e-38
0.00728 -0.21224 0.588 1.5214489e-38
0.0083999997 -0.21224 0.588 1.5306684e-38
0.0095038097 -0.21187904 0.58700001 1.5030812e-38
0.010585715 -0.21115716 0.58500004 1.5307399e-38
0.011700001 -0.21115716 0.58500004 1.5307752e-38
0.012792381 -0.21079621 0.58400005 1.5399948e-38
0.013904763 -0.21079621 0.58400005 1.5583267e-38
0.014965715 -0.21007429 0.58200002 1.5767658e-38
0.016046667 -0.20971334 0.58100003 1.5675819e-38
0.017153334 -0.20971334 0.58100003 1.5768014e-38
0.01826 -0.20971334 0.58100003 1.5767307e-38
0.019366667 -0.20971334 0.58100003 1.5859502e-38
0.020438096 -0.2093524 0.58000004 1.595205e-38
0.021542858 -0.2093524 0.58000004 1.6136441e-38
0.022647621 -0.2093524 0.58000004 1.6228276e-38
0.023752384 -0.2093524 0.58000004 1.6320472e-38
0.024814287 -0.20899145 0.57900006 1.6136445e-38
0.025872381 -0.20863047 0.57800001 1.6597423e-38
0.026973333 -0.20863047 0.57800001 1.6597775e-38
0.028025717 -0.20826954 0.57700002 1.6597775e-38
0.029124763 -0.20826954 0.57700002 1.6689263e-38
0.030223809 -0.20826954 0.57700002 1.6873654e-38
0.031322856 -0.20826954 0.57700002 1.6874006e-38
0.032421906 -0.20826954 0.57700002 1.6874006e-38
0.033520956 -0.20826954 0.57700002 1.6873646e-38
0.034620002 -0.20826954 0.57700002 1.7058037e-38
0.035719048 -0.20826954 0.57700002 1.6966206e-38
0.036818095 -0.20826954 0.57700002 1.7058401e-38
0.037917141 -0.20826954 0.57700002 1.7150597e-38
0.038948573 -0.20790859 0.57600003 1.7334988e-38
0.04004572 -0.20790859 0.57600003 1.742682e-38
0.041285716 -0.20863047 0.57800001 1.7519015e-38
0.042386666 -0.20863047 0.57800001 1.7334988e-38
0.04348762 -0.20863047 0.57800001 1.7334988e-38
0.044588573 -0.20863047 0.57800001 1.7334988e-38
0.045689523 -0.20863047 0.57800001 1.7334988e-38
0.046790477 -0.20863047 0.57800001 1.7334269e-38
0.047891427 -0.20863047 0.57800001 1.7610856e-38
0.04899238 -0.20863047 0.57800001 1.7427184e-38
0.050093334 -0.20863047 0.57800001 1.751938e-38
0.05128286 -0.20899145 0.57900006 1.7519029e-38
0.052476194 -0.2093524 0.58000004 1.7519029e-38
0.053488575 -0.20899145 0.57900006 1.7519375e-38
0.054591436 -0.20899145 0.57900006 1.7519375e-38
0.055886671 -0.20971334 0.58100003 1.742718e-38
0.056993335 -0.20971334 0.58100003 1.742718e-38
0.058100004 -0.20971334 0.58100003 1.7519375e-38
0.059206668 -0.20971334 0.58100003 1.7519375e-38
0.060313337 -0.20971334 0.58100003 1.7427184e-38
0.061420005 -0.20971334 0.58100003 1.7427184e-38
0.062634282 -0.21007429 0.58200002 1.7426828e-38
0.063742854 -0.21007429 0.58200002 1.7426828e-38
0.064851433 -0.21007429 0.58200002 1.7334988e-38
0.066073328 -0.21043524 0.583 1.7334988e-38
0.067299053 -0.21079621 0.58400005 1.7426465e-38
0.068411432 -0.21079621 0.58400005 1.7426465e-38
0.069642864 -0.21115716 0.58500004 1.7426465e-38
0.070878096 -0.21151811 0.58600003 1.7334269e-38
0.07199429 -0.21151811 0.58600003 1.7242074e-38
0.073235244 -0.21187904 0.58700001 1.7242074e-38
0.074480005 -0.21224 0.588 1.715023e-38
0.07572858 -0.21260096 0.58900005 1.7242425e-38
0.076980956 -0.21296191 0.59000003 1.7150241e-38
0.078237146 -0.21332286 0.59100002 1.696585e-38
0.079497144 -0.2136838 0.59200001 1.6873654e-38
0.080897152 -0.21440573 0.59400004 1.6689263e-38
0.082166664 -0.21476667 0.59500003 1.6597067e-38
0.083580002 -0.21548857 0.597 1.6597067e-38
0.085284762 -0.21693239 0.60100001 1.6689615e-38
0.08657334 -0.21729335 0.60200006 1.595205e-38
0.087720007 -0.21729335 0.60200006 1.5030809e-38
0.089014292 -0.2176543 0.60300004 1.6598135e-38
0.090611428 -0.21873714 0.60600001 1.8073265e-38
-0.043681905 -0.23194477 0.64600003 1.73357e-38
-0.04245143 -0.23194477 0.64600003 1.6413744e-38
-0.041220952 -0.23194477 0.64600003 1.6136818e-38
-0.039990477 -0.23194477 0.64600003 1.5583644e-38
-0.038760003 -0.23194477 0.64600003 1.4938984e-38
-0.037529524 -0.23194477 0.64600003 1.4570201e-38
-0.03629905 -0.23194477 0.64600003 1.4110659e-38
-0.035177141 -0.23266286 0.648 1.6876528e-38
-0.01625143 -0.2269181 0.63200003 1.9271448e-38
-0.01504762 -0.2269181 0.63200003 1.9179253e-38
-0.013821905 -0.22655906 0.63100004 1.7520079e-38
-0.012620001 -0.22655906 0.63100004 1.3740058e-38
-0.011418096 -0.22655906 0.63100004 1.392375e-38
-0.010216191 -0.22655906 0.63100004 1.4384728e-38
-0.0086000003 -0.21614669 0.60200006 1.4660596e-38
-0.0074533341 -0.21614669 0.60200006 1.4937183e-38
-0.0062961904 -0.21578763 0.60100001 1.4753494e-38
-0.0051428573 -0.21542858 0.60000002 1.4569103e-38
-0.0039933338 -0.21506953 0.59900004 1.4384361e-38
-0.0028476194 -0.21471049 0.59800005 1.4476557e-38
-0.0017057143 -0.21435143 0.597 1.4569115e-38
-0.00056761905 -0.21399239 0.59600002 1.4661311e-38
0.00056476193 -0.21291526 0.59300005 1.4661311e-38
0.0016914286 -0.2125562 0.59200001 1.4661311e-38
0.0028142859 -0.21219714 0.59100002 1.4845702e-38
0.0039266669 -0.21147907 0.58900005 1.5122289e-38
0.0050399997 -0.21111999 0.588 1.4937902e-38
0.0061599999 -0.21111999 0.588 1.4937902e-38
0.00728 -0.21111999 0.588 1.5030098e-38
0.0083999997 -0.21111999 0.588 1.5214489e-38
0.0095038097 -0.21076097 0.58700001 1.5123005e-38
0.01060381 -0.21040191 0.58600003 1.5123005e-38
0.011700001 -0.21004286 0.58500004 1.539851e-38
0.012792381 -0.20968382 0.58400005 1.5490706e-38
0.013904763 -0.20968382 0.58400005 1.5491071e-38
0.014965715 -0.20896572 0.58200002 1.5767658e-38
0.016074285 -0.20896572 0.58200002 1.5768014e-38
0.017153334 -0.20860668 0.58100003 1.5768014e-38
0.01826 -0.20860668 0.58100003 1.5859508e-38
0.019366667 -0.20860668 0.58100003 1.5859508e-38
0.020438096 -0.20824763 0.58000004 1.6043882e-38
0.021542858 -0.20824763 0.58000004 1.6136078e-38
0.022647621 -0.20824763 0.58000004 1.6227922e-38
0.023752384 -0.20824763 0.58000004 1.6227922e-38
0.024857145 -0.20824763 0.58000004 1.6228288e-38
0.025917146 -0.20788859 0.57900006 1.6689266e-38
0.027020002 -0.20788859 0.57900006 1.6689968e-38
0.028074287 -0.20752953 0.57800001 1.6597772e-38
0.029175239 -0.20752953 0.57800001 1.6689619e-38
0.03027619 -0.20752953 0.57800001 1.7058401e-38
0.03137714 -0.20752953 0.57800001 1.6965839e-38
0.032421906 -0.20717049 0.57700002 1.6965839e-38
0.033520956 -0.20717049 0.57700002 1.6965841e-38
0.034620002 -0.20717049 0.57700002 1.7058037e-38
0.035719048 -0.20717049 0.57700002 1.7058401e-38
0.036818095 -0.20717049 0.57700002 1.7242793e-38
0.037917141 -0.20717049 0.57700002 1.7150597e-38
0.038948573 -0.20681143 0.57600003 1.7334988e-38
0.04004572 -0.20681143 0.57600003 1.7611211e-38
0.041285716 -0.20752953 0.57800001 1.7611211e-38
0.042386666 -0.20752953 0.57800001 1.7334988e-38
0.04348762 -0.20752953 0.57800001 1.7334988e-38
0.044588573 -0.20752953 0.57800001 1.7243144e-38
0.045689523 -0.20752953 0.57800001 1.7243144e-38
0.046790477 -0.20752953 0.57800001 1.7242437e-38
0.047891427 -0.20752953 0.57800001 1.7426828e-38
0.04899238 -0.20752953 0.57800001 1.742718e-38
0.050093334 -0.20752953 0.57800001 1.742718e-38
0.05128286 -0.20788859 0.57900006 1.7611225e-38
0.052476194 -0.20824763 0.58000004 1.7519029e-38
0.053488575 -0.20788859 0.57900006 1.742718e-38
0.054591436 -0.20788859 0.57900006 1.742718e-38
0.055886671 -0.20860668 0.58100003 1.7426814e-38
0.056993335 -0.20860668 0.58100003 1.751901e-38
0.058100004 -0.20860668 0.58100003 1.742718e-38
0.059206668 -0.20860668 0.58100003 1.7519375e-38
0.060313337 -0.20860668 0.58100003 1.7427184e-38
0.061420005 -0.20860668 0.58100003 1.7334988e-38
0.062634282 -0.20896572 0.58200002 1.7334632e-38
0.063742854 -0.20896572 0.58200002 1.7334632e-38
0.064851433 -0.20896572 0.58200002 1.7334632e-38
0.066073328 -0.20932476 0.583 1.7334632e-38
0.067183807 -0.20932476 0.583 1.7334988e-38
0.068411432 -0.20968382 0.58400005 1.6966206e-38
0.069642864 -0.21004286 0.58500004 1.7334988e-38
0.070878096 -0.21040191 0.58600003 1.7334988e-38
0.07199429 -0.21040191 0.58600003 1.7426814e-38
0.073235244 -0.21076097 0.58700001 1.7242423e-38
0.074606672 -0.21147907 0.58900005 1.7058387e-38
0.07585714 -0.2118381 0.59000003 1.7242779e-38
0.076980956 -0.2118381 0.59000003 1.7334635e-38
0.078237146 -0.21219714 0.59100002 1.6965853e-38
0.079497144 -0.2125562 0.59200001 1.6781459e-38
0.080897152 -0.2132743 0.59400004 1.6689263e-38
0.082304768 -0.21399239 0.59600002 1.6689615e-38
0.083720006 -0.21471049 0.59800005 1.6597419e-38
0.085284762 -0.21578763 0.60100001 1.6597772e-38
0.086717151 -0.21650574 0.60300004 1.5952403e-38
0.087865725 -0.21650574 0.60300004 1.5123735e-38
0.08916191 -0.21686476 0.60400003 1.6783256e-38
0.090611428 -0.21758287 0.60600001 1.8442035e-38
-0.043681905 -0.23071429 0.64600003 1.7336063e-38
-0.04245143 -0.23071429 0.64600003 1.613752e-38
-0.041220952 -0.23071429 0.64600003 1.6137171e-38
-0.04005238 -0.23107143 0.64700001 1.5860584e-38
-0.038820002 -0.23107143 0.64700001 1.5215215e-38
-0.037587617 -0.23107143 0.64700001 1.4569845e-38
-0.036355238 -0.23107143 0.64700001 1.4110662e-38
-0.03523143 -0.23178573 0.64900005 1.7153118e-38
-0.01504762 -0.2257143 0.63200003 1.9548035e-38
-0.013843809 -0.2257143 0.63200003 1.7980005e-38
-0.01264 -0.2257143 0.63200003 1.4107788e-38
-0.01143619 -0.2257143 0.63200003 1.3738994e-38
-0.010232382 -0.2257143 0.63200003 1.4476559e-38
-0.0085857147 -0.21464285 0.60100001 1.4568755e-38
-0.0074409526 -0.21464285 0.60100001 1.4845342e-38
-0.0062961904 -0.21464285 0.60100001 1.4477273e-38
-0.0051428573 -0.21428573 0.60000002 1.4292881e-38
-0.0039933338 -0.21392858 0.59900004 1.4476191e-38
-0.0028476194 -0.21357144 0.59800005 1.4476191e-38
-0.0017057143 -0.21321428 0.597 1.4568752e-38
-0.00056761905 -0.21285714 0.59600002 1.4660948e-38
0.00056666671 -0.21250001 0.59500003 1.4569115e-38
0.0016914286 -0.21142857 0.59200001 1.4753506e-38
0.0028142859 -0.21107145 0.59100002 1.4753871e-38
0.0039266669 -0.21035716 0.58900005 1.4938262e-38
0.0050485721 -0.21035716 0.58900005 1.5030093e-38
0.0061599999 -0.20999999 0.588 1.5030093e-38
0.00728 -0.20999999 0.588 1.4937898e-38
0.0083999997 -0.20999999 0.588 1.5214485e-38
0.0095038097 -0.20964286 0.58700001 1.5215201e-38
0.01060381 -0.20928572 0.58600003 1.5307396e-38
0.011700001 -0.20892859 0.58500004 1.5490706e-38
0.012814286 -0.20892859 0.58500004 1.5490706e-38
0.013904763 -0.20857143 0.58400005 1.5398524e-38
0.014991429 -0.20821428 0.583 1.5767307e-38
0.016074285 -0.20785715 0.58200002 1.5767658e-38
0.017182857 -0.20785715 0.58200002 1.5767658e-38
0.018291429 -0.20785715 0.58200002 1.5767658e-38
0.019366667 -0.20750001 0.58100003 1.595205e-38
0.020473335 -0.20750001 0.58100003 1.6136075e-38
0.021542858 -0.20714287 0.58000004 1.6136075e-38
0.022647621 -0.20714287 0.58000004 1.6319753e-38
0.023752384 -0.20714287 0.58000004 1.6319753e-38
0.024857145 -0.20714287 0.58000004 1.6136089e-38
0.025917146 -0.20678572 0.57900006 1.6689263e-38
0.027020002 -0.20678572 0.57900006 1.6689965e-38
0.028122859 -0.20678572 0.57900006 1.6689965e-38
0.029225716 -0.20678572 0.57900006 1.6689615e-38
0.030328574 -0.20678572 0.57900006 1.6874006e-38
0.03137714 -0.20642857 0.57800001 1.6965839e-38
0.032421906 -0.20607144 0.57700002 1.7058034e-38
0.033520956 -0.20607144 0.57700002 1.6966557e-38
0.034680001 -0.20642857 0.57800001 1.7150949e-38
0.035780951 -0.20642857 0.57800001 1.7242793e-38
0.036881905 -0.20642857 0.57800001 1.7242793e-38
0.037917141 -0.20607144 0.57700002 1.7243144e-38
0.039016195 -0.20607144 0.57700002 1.733534e-38
0.040115241 -0.20607144 0.57700002 1.742718e-38
0.041285716 -0.20642857 0.57800001 1.7519375e-38
0.042386666 -0.20642857 0.57800001 1.7334984e-38
0.04348762 -0.20642857 0.57800001 1.742718e-38
0.044588573 -0.20642857 0.57800001 1.7427536e-38
0.045689523 -0.20642857 0.57800001 1.7427536e-38
0.046871431 -0.20678572 0.57900006 1.7334988e-38
0.047974288 -0.20678572 0.57900006 1.7427184e-38
0.049077149 -0.20678572 0.57900006 1.751938e-38
0.050180007 -0.20678572 0.57900006 1.7427184e-38
0.051371429 -0.20714287 0.58000004 1.7519024e-38
0.052476194 -0.20714287 0.58000004 1.7519024e-38
0.053580958 -0.20714287 0.58000004 1.7518661e-38
0.054685719 -0.20714287 0.58000004 1.7610856e-38
0.055886671 -0.20750001 0.58100003 1.742718e-38
0.056993335 -0.20750001 0.58100003 1.742718e-38
0.058100004 -0.20750001 0.58100003 1.7243153e-38
0.059206668 -0.20750001 0.58100003 1.7335348e-38
0.060313337 -0.20750001 0.58100003 1.7335351e-38
0.061420005 -0.20750001 0.58100003 1.7335351e-38
0.062634282 -0.20785715 0.58200002 1.7334635e-38
0.063742854 -0.20785715 0.58200002 1.7426831e-38
0.064851433 -0.20785715 0.58200002 1.7427184e-38
0.066073328 -0.20821428 0.583 1.7427184e-38
0.067183807 -0.20821428 0.583 1.742718e-38
0.068411432 -0.20857143 0.58400005 1.742718e-38
0.069642864 -0.20892859 0.58500004 1.742718e-38
0.070878096 -0.20928572 0.58600003 1.742718e-38
0.07199429 -0.20928572 0.58600003 1.7334984e-38
0.073235244 -0.20964286 0.58700001 1.7058397e-38
0.074606672 -0.21035716 0.58900005 1.7058034e-38
0.07585714 -0.2107143 0.59000003 1.715023e-38
0.077241905 -0.21142857 0.59200001 1.7058048e-38
0.078369528 -0.21142857 0.59200001 1.6965853e-38
0.079631433 -0.21178573 0.59300005 1.6873654e-38
0.081033342 -0.21250001 0.59500003 1.6873654e-38
0.082580961 -0.21357144 0.59800005 1.6597783e-38
0.084000006 -0.21428573 0.60000002 1.6505588e-38
0.085284762 -0.21464285 0.60100001 1.6505574e-38
0.086717151 -0.21535715 0.60300004 1.5491422e-38
0.087865725 -0.21535715 0.60300004 1.4938617e-38
0.08916191 -0.21571429 0.60400003 1.7243507e-38
-0.043749522 -0.22983906 0.64700001 1.7151672e-38
-0.042517144 -0.22983906 0.64700001 1.6045324e-38
-0.041284762 -0.22983906 0.64700001 1.6044975e-38
-0.04005238 -0.22983906 0.64700001 1.6229367e-38
-0.038820002 -0.22983906 0.64700001 1.5123755e-38
-0.037645712 -0.23019429 0.648 1.4293994e-38
-0.036467623 -0.23054953 0.64900005 1.4295066e-38
-0.03523143 -0.23054953 0.64900005 1.7337522e-38
-0.015095239 -0.22522095 0.634 1.9732426e-38
-0.013887619 -0.22522095 0.634 1.9178537e-38
-0.01264 -0.22451048 0.63200003 1.4568755e-38
-0.01143619 -0.22451048 0.63200003 1.3279455e-38
-0.010232382 -0.22451048 0.63200003 1.4201412e-38
-0.0085857147 -0.2134981 0.60100001 1.4660951e-38
-0.0074409526 -0.2134981 0.60100001 1.4753146e-38
-0.0062961904 -0.2134981 0.60100001 1.4477275e-38
-0.0051428573 -0.21314286 0.60000002 1.4292884e-38
-0.0039933338 -0.21278763 0.59900004 1.4200673e-38
-0.002852381 -0.21278763 0.59900004 1.447726e-38
-0.0017057143 -0.21207714 0.597 1.4660945e-38
-0.00056761905 -0.2117219 0.59600002 1.4660945e-38
0.00056666671 -0.21136668 0.59500003 1.4753511e-38
0.0016942859 -0.21065621 0.59300005 1.4937902e-38
0.0028142859 -0.20994572 0.59100002 1.4938265e-38
0.0039333333 -0.20959048 0.59000003 1.503046e-38
0.0050485721 -0.20923525 0.58900005 1.5030449e-38
0.0061599999 -0.20888001 0.588 1.5030449e-38
0.00728 -0.20888001 0.588 1.4937902e-38
0.0083999997 -0.20888001 0.588 1.4937902e-38
0.0095038097 -0.20852476 0.58700001 1.5030098e-38
0.01060381 -0.20816952 0.58600003 1.5306684e-38
0.011700001 -0.20781431 0.58500004 1.5398513e-38
0.012814286 -0.20781431 0.58500004 1.5398513e-38
0.013928573 -0.20781431 0.58500004 1.5398164e-38
0.015017144 -0.20745906 0.58400005 1.5859142e-38
0.016101904 -0.2071038 0.583 1.5768014e-38
0.017212382 -0.2071038 0.583 1.5768014e-38
0.018322857 -0.2071038 0.583 1.5952037e-38
0.019400001 -0.20674857 0.58200002 1.6044233e-38
0.020473335 -0.20639335 0.58100003 1.6136075e-38
0.021579999 -0.20639335 0.58100003 1.6136075e-38
0.022686668 -0.20639335 0.58100003 1.6319753e-38
0.023793334 -0.20639335 0.58100003 1.6319753e-38
0.024857145 -0.2060381 0.58000004 1.6228285e-38
0.025961906 -0.2060381 0.58000004 1.6597067e-38
0.027066668 -0.2060381 0.58000004 1.6597769e-38
0.028122859 -0.20568287 0.57900006 1.6689965e-38
0.029225716 -0.20568287 0.57900006 1.6689252e-38
0.030328574 -0.20568287 0.57900006 1.6781447e-38
0.03137714 -0.20532763 0.57800001 1.678145e-38
0.032478098 -0.20532763 0.57800001 1.6965841e-38
0.033579048 -0.20532763 0.57800001 1.6873291e-38
0.034680001 -0.20532763 0.57800001 1.7242074e-38
0.035780951 -0.20532763 0.57800001 1.7242793e-38
0.036881905 -0.20532763 0.57800001 1.7242793e-38
0.037917141 -0.20497239 0.57700002 1.7150593e-38
0.039016195 -0.20497239 0.57700002 1.7242788e-38
0.040115241 -0.20497239 0.57700002 1.733534e-38
0.041285716 -0.20532763 0.57800001 1.733534e-38
0.042386666 -0.20532763 0.57800001 1.7427536e-38
0.04348762 -0.20532763 0.57800001 1.7427536e-38
0.044588573 -0.20532763 0.57800001 1.742718e-38
0.045689523 -0.20532763 0.57800001 1.742718e-38
0.046871431 -0.20568287 0.57900006 1.7427184e-38
0.047974288 -0.20568287 0.57900006 1.7427184e-38
0.049077149 -0.20568287 0.57900006 1.7427184e-38
0.050266668 -0.2060381 0.58000004 1.7427184e-38
0.051371429 -0.2060381 0.58000004 1.7427184e-38
0.052476194 -0.2060381 0.58000004 1.7427184e-38
0.053580958 -0.2060381 0.58000004 1.7427184e-38
0.054685719 -0.2060381 0.58000004 1.7980358e-38
0.055886671 -0.20639335 0.58100003 1.7611222e-38
0.056993335 -0.20639335 0.58100003 1.7519026e-38
0.058100004 -0.20639335 0.58100003 1.7426828e-38
0.059206668 -0.20639335 0.58100003 1.7426828e-38
0.060417145 -0.20674857 0.58200002 1.7426828e-38
0.061525717 -0.20674857 0.58200002 1.7426828e-38
0.062634282 -0.20674857 0.58200002 1.7334632e-38
0.063742854 -0.20674857 0.58200002 1.7426828e-38
0.064962856 -0.2071038 0.583 1.7334988e-38
0.066186674 -0.20745906 0.58400005 1.7334988e-38
0.067414291 -0.20781431 0.58500004 1.7334984e-38
0.06852857 -0.20781431 0.58500004 1.742718e-38
0.069880955 -0.20852476 0.58700001 1.733534e-38
0.070999049 -0.20852476 0.58700001 1.7243144e-38
0.072239995 -0.20888001 0.588 1.7150593e-38
0.073359996 -0.20888001 0.588 1.6874006e-38
0.074733332 -0.20959048 0.59000003 1.6966206e-38
0.075985715 -0.20994572 0.59100002 1.7058401e-38
0.077372387 -0.21065621 0.59300005 1.7058401e-38
0.07850191 -0.21065621 0.59300005 1.687401e-38
0.079900004 -0.21136668 0.59500003 1.6781461e-38
0.081305712 -0.21207714 0.597 1.6781461e-38
0.082580961 -0.2124324 0.59800005 1.6505588e-38
0.084000006 -0.21314286 0.60000002 1.6321196e-38
0.085426673 -0.21385334 0.60200006 1.6321185e-38
0.086860955 -0.21456382 0.60400003 1.5307033e-38
0.088011429 -0.21456382 0.60400003 1.4662757e-38
0.089457139 -0.21527429 0.60600001 1.7244235e-38
-0.043681905 -0.22825335 0.64600003 1.705948e-38
-0.04245143 -0.22825335 0.64600003 1.6045328e-38
-0.041284762 -0.22860667 0.64700001 1.6229723e-38
-0.04005238 -0.22860667 0.64700001 1.6321918e-38
-0.038880002 -0.22896001 0.648 1.5861303e-38
-0.037645712 -0.22896001 0.648 1.4847151e-38
-0.036467623 -0.22931336 0.64900005 1.4479445e-38
-0.03523143 -0.22931336 0.64900005 1.75219e-38
-0.034047622 -0.22966668 0.65000004 1.8903389e-38
-0.015119049 -0.22436668 0.63500005 1.9731705e-38
-0.013887619 -0.22401333 0.634 1.9086355e-38
-0.01268 -0.22401333 0.634 1.4845356e-38
-0.01143619 -0.22330669 0.63200003 1.2543336e-38
-0.010232382 -0.22330669 0.63200003 1.3926271e-38
-0.0090285717 -0.22330669 0.63200003 1.4661667e-38
-0.0074409526 -0.21235333 0.60100001 1.4661667e-38
-0.0062961904 -0.21235333 0.60100001 1.4569471e-38
-0.0051428573 -0.212 0.60000002 1.4108493e-38
-0.0040000002 -0.212 0.60000002 1.4015932e-38
-0.0028571428 -0.212 0.60000002 1.4569105e-38
-0.0017085716 -0.21129335 0.59800005 1.4660945e-38
-0.00056761905 -0.21058668 0.59600002 1.4660945e-38
0.00056666671 -0.21023335 0.59500003 1.4845702e-38
0.0016942859 -0.20952669 0.59300005 1.5030093e-38
0.0028190475 -0.20917334 0.59200001 1.4938617e-38
0.0039333333 -0.20846668 0.59000003 1.5030812e-38
0.0050485721 -0.20811334 0.58900005 1.5030809e-38
0.0061599999 -0.20775999 0.588 1.4938614e-38
0.00728 -0.20775999 0.588 1.5030093e-38
0.0083999997 -0.20775999 0.588 1.5030093e-38
0.0095038097 -0.20740667 0.58700001 1.4937898e-38
0.01060381 -0.20705333 0.58600003 1.530668e-38
0.011720001 -0.20705333 0.58600003 1.5398513e-38
0.012814286 -0.20670001 0.58500004 1.5490709e-38
0.013928573 -0.20670001 0.58500004 1.5582192e-38
0.015017144 -0.20634668 0.58400005 1.5950975e-38
0.016129524 -0.20634668 0.58400005 1.5766944e-38
0.017212382 -0.20599332 0.583 1.5859139e-38
0.018322857 -0.20599332 0.583 1.6043882e-38
0.019400001 -0.20564 0.58200002 1.6043882e-38
0.020473335 -0.20528667 0.58100003 1.604388e-38
0.021579999 -0.20528667 0.58100003 1.6228271e-38
