# .PCD v0.7 - Point Cloud Data file format
VERSION 0.7
FIELDS x y z rgb
SIZE 4 4 4 4
TYPE F F F F
COUNT 1 1 1 1
WIDTH 994
HEIGHT 1
VIEWPOINT 0 0 0 1 0 0 0
POINTS 994
DATA ascii
0.076850481 -0.20250382 0.58900005 1.6689263e-38
0.07797239 -0.20250382 0.58900005 1.6689263e-38
0.079228573 -0.20284761 0.59000003 1.6689602e-38
0.080352381 -0.20284761 0.59000003 1.5767646e-38
0.0813381 -0.20250382 0.58900005 1.5306331e-38
0.082460009 -0.20250382 0.58900005 1.5029744e-38
-0.015531429 -0.20651048 0.60400003 1.9915733e-38
-0.014380952 -0.20651048 0.60400003 1.6320103e-38
-0.013164761 -0.20548476 0.60100001 1.3556046e-38
-0.012 -0.20514287 0.60000002 1.3740438e-38
-0.010839048 -0.20480096 0.59900004 1.4199981e-38
-0.0096495235 -0.20377524 0.59600002 1.4292177e-38
-0.0084857149 -0.20309144 0.59400004 1.4200686e-38
-0.007341905 -0.20274955 0.59300005 1.4569468e-38
-0.0062019047 -0.20240761 0.59200001 1.4569468e-38
-0.0050657145 -0.20206572 0.59100002 1.4661664e-38
-0.0039333333 -0.20172381 0.59000003 1.4845336e-38
-0.0028000001 -0.20104 0.588 1.4937532e-38
-0.0016742859 -0.2003562 0.58600003 1.4937902e-38
-0.00055714289 -0.20001429 0.58500004 1.4937902e-38
0.0005552381 -0.19933046 0.583 1.4937902e-38
0.0016628571 -0.19898857 0.58200002 1.5030098e-38
0.0027714286 -0.19898857 0.58200002 1.5122293e-38
0.0038733336 -0.19864668 0.58100003 1.5214489e-38
0.0049800002 -0.19864668 0.58100003 1.5214841e-38
0.0060761911 -0.19830477 0.58000004 1.5214841e-38
0.0071685724 -0.19796288 0.57900006 1.5582185e-38
0.0082571432 -0.19762094 0.57800001 1.5766577e-38
0.0093419049 -0.19727905 0.57700002 1.5675103e-38
0.010440952 -0.19727905 0.57700002 1.5767298e-38
0.01152 -0.19693716 0.57600003 1.5766946e-38
0.012617144 -0.19693716 0.57600003 1.6043533e-38
0.013690477 -0.19659525 0.57500005 1.6043882e-38
0.01476 -0.19625333 0.574 1.6136078e-38
0.015825715 -0.19591142 0.57300001 1.6228274e-38
0.016917143 -0.19591142 0.57300001 1.6228274e-38
0.018008571 -0.19591142 0.57300001 1.6227922e-38
0.019099999 -0.19591142 0.57300001 1.6596704e-38
0.020191429 -0.19591142 0.57300001 1.6505223e-38
0.021245714 -0.19556953 0.57200003 1.6689615e-38
0.022335239 -0.19556953 0.57200003 1.678145e-38
0.023424761 -0.19556953 0.57200003 1.678145e-38
0.024514288 -0.19556953 0.57200003 1.678145e-38
0.02560381 -0.19556953 0.57200003 1.7058037e-38
0.026693335 -0.19556953 0.57200003 1.7149511e-38
0.027782857 -0.19556953 0.57200003 1.7241707e-38
0.028821906 -0.19522762 0.57100004 1.7150233e-38
0.029909525 -0.19522762 0.57100004 1.7242428e-38
0.030997144 -0.19522762 0.57100004 1.7242793e-38
0.032028574 -0.19488573 0.57000005 1.7334988e-38
0.033114288 -0.19488573 0.57000005 1.7426465e-38
0.034200002 -0.19488573 0.57000005 1.7426465e-38
0.035347622 -0.19522762 0.57100004 1.7426834e-38
0.036435243 -0.19522762 0.57100004 1.7611225e-38
0.037588574 -0.19556953 0.57200003 1.7611571e-38
0.038678098 -0.19556953 0.57200003 1.7519375e-38
0.039837144 -0.19591142 0.57300001 1.7242793e-38
0.040928572 -0.19591142 0.57300001 1.7334988e-38
0.042020001 -0.19591142 0.57300001 1.7334624e-38
0.043111429 -0.19591142 0.57300001 1.7703406e-38
0.04420286 -0.19591142 0.57300001 1.7611571e-38
0.045294289 -0.19591142 0.57300001 1.7611571e-38
0.046385717 -0.19591142 0.57300001 1.7703406e-38
0.047477145 -0.19591142 0.57300001 1.7795602e-38
0.048568573 -0.19591142 0.57300001 1.7703406e-38
0.049660001 -0.19591142 0.57300001 1.7979993e-38
0.050839998 -0.19625333 0.574 1.8071837e-38
0.052023813 -0.19659525 0.57500005 1.779525e-38
0.053211428 -0.19693716 0.57600003 1.7426828e-38
0.054308575 -0.19693716 0.57600003 1.7611219e-38
0.055405717 -0.19693716 0.57600003 1.7703406e-38
0.056600954 -0.19727905 0.57700002 1.7703406e-38
0.057700001 -0.19727905 0.57700002 1.7519024e-38
0.058900952 -0.19762094 0.57800001 1.7519024e-38
0.060105722 -0.19796288 0.57900006 1.7519375e-38
0.061208576 -0.19796288 0.57900006 1.742718e-38
0.062419057 -0.19830477 0.58000004 1.7426828e-38
0.063633338 -0.19864668 0.58100003 1.7334632e-38
0.064740002 -0.19864668 0.58100003 1.7150597e-38
0.065846667 -0.19864668 0.58100003 1.7334988e-38
0.067068577 -0.19898857 0.58200002 1.7242425e-38
0.068294287 -0.19933046 0.583 1.7242425e-38
0.069523819 -0.1996724 0.58400005 1.7242074e-38
0.070757151 -0.20001429 0.58500004 1.7149878e-38
0.07199429 -0.2003562 0.58600003 1.7149525e-38
0.073235244 -0.20069809 0.58700001 1.7149525e-38
0.074480005 -0.20104 0.588 1.7242428e-38
0.075599998 -0.20104 0.588 1.6965841e-38
0.076850481 -0.20138192 0.58900005 1.6689619e-38
0.078104764 -0.20172381 0.59000003 1.6689619e-38
0.079228573 -0.20172381 0.59000003 1.6412665e-38
0.080352381 -0.20172381 0.59000003 1.5767295e-38
0.0813381 -0.20138192 0.58900005 1.4938977e-38
0.082460009 -0.20138192 0.58900005 1.4938977e-38
-0.01682 -0.20706001 0.60900003 1.9732421e-38
-0.015582857 -0.20603999 0.60600001 2.0008282e-38
-0.014380952 -0.20536001 0.60400003 1.6412652e-38
-0.013164761 -0.20434001 0.60100001 1.3648242e-38
-0.012 -0.20400001 0.60000002 1.3648242e-38
-0.010820953 -0.20332003 0.59800005 1.4199981e-38
-0.0096495235 -0.20264 0.59600002 1.4292177e-38
-0.0084857149 -0.20196001 0.59400004 1.4292165e-38
-0.007354286 -0.20196001 0.59400004 1.4660948e-38
-0.0062123816 -0.20162001 0.59300005 1.4660945e-38
-0.0050742859 -0.20128001 0.59200001 1.4660945e-38
-0.0039333333 -0.2006 0.59000003 1.4844976e-38
-0.0028000001 -0.19992 0.588 1.4937172e-38
-0.0016771429 -0.19958 0.58700001 1.4845003e-38
-0.00055714289 -0.19890001 0.58500004 1.512159e-38
0.0005561905 -0.19856001 0.58400005 1.4937902e-38
0.0016657143 -0.19822 0.583 1.4937902e-38
0.0027761904 -0.19822 0.583 1.5030098e-38
0.0038733336 -0.19754 0.58100003 1.5122293e-38
0.0049800002 -0.19754 0.58100003 1.5305598e-38
0.0060761911 -0.19720002 0.58000004 1.5305598e-38
0.0071685724 -0.19686002 0.57900006 1.521377e-38
0.0082571432 -0.19652 0.57800001 1.5582552e-38
0.009358095 -0.19652 0.57800001 1.5674384e-38
0.010440952 -0.19618002 0.57700002 1.5766579e-38
0.01152 -0.19584002 0.57600003 1.5766946e-38
0.012617144 -0.19584002 0.57600003 1.5859142e-38
0.013690477 -0.19550002 0.57500005 1.5859142e-38
0.014785715 -0.19550002 0.57500005 1.6043533e-38
0.015853332 -0.19516 0.574 1.6228274e-38
0.016946668 -0.19516 0.574 1.6320469e-38
0.01804 -0.19516 0.574 1.6227922e-38
0.019099999 -0.19482 0.57300001 1.6320117e-38
0.020191429 -0.19482 0.57300001 1.6504863e-38
0.021282857 -0.19482 0.57300001 1.6597059e-38
0.022374285 -0.19482 0.57300001 1.6689255e-38
0.023465713 -0.19482 0.57300001 1.6873646e-38
0.024557142 -0.19482 0.57300001 1.6872927e-38
0.025648572 -0.19482 0.57300001 1.6965123e-38
0.026693335 -0.19448 0.57200003 1.6965127e-38
0.027782857 -0.19448 0.57200003 1.7149518e-38
0.028872382 -0.19448 0.57200003 1.7058037e-38
0.029961905 -0.19448 0.57200003 1.742682e-38
0.030997144 -0.19414002 0.57100004 1.7426814e-38
0.032028574 -0.19380002 0.57000005 1.7426814e-38
0.033114288 -0.19380002 0.57000005 1.7426468e-38
0.034200002 -0.19380002 0.57000005 1.7518663e-38
0.035347622 -0.19414002 0.57100004 1.7518676e-38
0.036435243 -0.19414002 0.57100004 1.7610872e-38
0.037588574 -0.19448 0.57200003 1.7519024e-38
0.038678098 -0.19448 0.57200003 1.7426828e-38
0.039837144 -0.19482 0.57300001 1.742718e-38
0.040928572 -0.19482 0.57300001 1.7519375e-38
0.042020001 -0.19482 0.57300001 1.7334624e-38
0.043111429 -0.19482 0.57300001 1.7519015e-38
0.04420286 -0.19482 0.57300001 1.7519375e-38
0.045373332 -0.19516 0.574 1.742718e-38
0.046385717 -0.19482 0.57300001 1.7519024e-38
0.047477145 -0.19482 0.57300001 1.7703415e-38
0.048653331 -0.19516 0.574 1.7703406e-38
0.049746666 -0.19516 0.574 1.7887798e-38
0.050928578 -0.19550002 0.57500005 1.7887795e-38
0.052114289 -0.19584002 0.57600003 1.7795599e-38
0.053211428 -0.19584002 0.57600003 1.7610503e-38
0.054308575 -0.19584002 0.57600003 1.788709e-38
0.055501904 -0.19618002 0.57700002 1.7611219e-38
0.056600954 -0.19618002 0.57700002 1.7611219e-38
0.057800002 -0.19652 0.57800001 1.7702699e-38
0.058900952 -0.19652 0.57800001 1.7610503e-38
0.060105722 -0.19686002 0.57900006 1.7426828e-38
0.061208576 -0.19686002 0.57900006 1.7426828e-38
0.062419057 -0.19720002 0.58000004 1.7611219e-38
0.063633338 -0.19754 0.58100003 1.7611219e-38
0.064740002 -0.19754 0.58100003 1.7242793e-38
0.065846667 -0.19754 0.58100003 1.7150597e-38
0.067068577 -0.19788 0.58200002 1.7150227e-38
0.068294287 -0.19822 0.583 1.7242423e-38
0.069523819 -0.19856001 0.58400005 1.7242074e-38
0.070757151 -0.19890001 0.58500004 1.7149878e-38
0.07199429 -0.19924001 0.58600003 1.7241721e-38
0.073359996 -0.19992 0.588 1.7241721e-38
0.074480005 -0.19992 0.588 1.715023e-38
0.07572858 -0.20026001 0.58900005 1.6965839e-38
0.076980956 -0.2006 0.59000003 1.6873646e-38
0.078104764 -0.2006 0.59000003 1.6504863e-38
0.079228573 -0.2006 0.59000003 1.6320832e-38
0.08048857 -0.20094001 0.59100002 1.5675463e-38
-0.01682 -0.2059 0.60900003 1.9824616e-38
-0.015608573 -0.20522383 0.60700005 2.0284871e-38
-0.014428572 -0.20488572 0.60600001 1.6412655e-38
-0.013186668 -0.20353335 0.60200006 1.3648242e-38
-0.012 -0.20285715 0.60000002 1.3556046e-38
-0.010820953 -0.20218097 0.59800005 1.4199981e-38
-0.0096495235 -0.20150477 0.59600002 1.4292177e-38
-0.0085000005 -0.20116667 0.59500003 1.4383642e-38
-0.007354286 -0.20082858 0.59400004 1.4568033e-38
-0.0062123816 -0.20049049 0.59300005 1.4291446e-38
-0.0050742859 -0.20015238 0.59200001 1.4752425e-38
-0.0039333333 -0.1994762 0.59000003 1.4752425e-38
-0.0028000001 -0.1988 0.588 1.4752425e-38
-0.0016771429 -0.19846191 0.58700001 1.4844634e-38
-0.00055809523 -0.19812383 0.58600003 1.5029026e-38
0.00055714289 -0.19778574 0.58500004 1.5029733e-38
0.0016685715 -0.19744764 0.58400005 1.5029733e-38
0.0027809527 -0.19744764 0.58400005 1.4937546e-38
0.0038800002 -0.19677143 0.58200002 1.5121937e-38
0.0049800002 -0.19643334 0.58100003 1.5305598e-38
0.0060866671 -0.19643334 0.58100003 1.5397794e-38
0.0071685724 -0.19575715 0.57900006 1.5306317e-38
0.0082714288 -0.19575715 0.57900006 1.56751e-38
0.009358095 -0.19541904 0.57800001 1.56751e-38
0.010440952 -0.19508095 0.57700002 1.5767295e-38
0.01154 -0.19508095 0.57700002 1.5767298e-38
0.012617144 -0.19474286 0.57600003 1.5951689e-38
0.013690477 -0.19440478 0.57500005 1.5859488e-38
0.014785715 -0.19440478 0.57500005 1.6136075e-38
0.015853332 -0.19406667 0.574 1.6320106e-38
0.016917143 -0.19372858 0.57300001 1.6412302e-38
0.018008571 -0.19372858 0.57300001 1.6227922e-38
0.019099999 -0.19372858 0.57300001 1.6504509e-38
0.020191429 -0.19372858 0.57300001 1.6504858e-38
0.021282857 -0.19372858 0.57300001 1.6689249e-38
0.022374285 -0.19372858 0.57300001 1.6780728e-38
0.023465713 -0.19372858 0.57300001 1.6872924e-38
0.024557142 -0.19372858 0.57300001 1.7056955e-38
0.025648572 -0.19372858 0.57300001 1.7149151e-38
0.026693335 -0.19339049 0.57200003 1.7149151e-38
0.027782857 -0.19339049 0.57200003 1.7241346e-38
0.028872382 -0.19339049 0.57200003 1.7241707e-38
0.029961905 -0.19339049 0.57200003 1.7518294e-38
0.030997144 -0.1930524 0.57100004 1.7426814e-38
0.032084763 -0.1930524 0.57100004 1.7426814e-38
0.03317238 -0.1930524 0.57100004 1.7426465e-38
0.034260001 -0.1930524 0.57100004 1.7518661e-38
0.035409525 -0.19339049 0.57200003 1.7427184e-38
0.03656286 -0.19372858 0.57300001 1.751938e-38
0.037654288 -0.19372858 0.57300001 1.7519375e-38
0.038745716 -0.19372858 0.57300001 1.7519375e-38
0.039837144 -0.19372858 0.57300001 1.7611211e-38
0.040999997 -0.19406667 0.574 1.7611211e-38
0.042020001 -0.19372858 0.57300001 1.7519012e-38
0.043111429 -0.19372858 0.57300001 1.7611208e-38
0.04420286 -0.19372858 0.57300001 1.7519375e-38
0.045373332 -0.19406667 0.574 1.7519375e-38
0.046466667 -0.19406667 0.574 1.7703771e-38
0.047559999 -0.19406667 0.574 1.7703771e-38
0.048653331 -0.19406667 0.574 1.7703767e-38
0.049833339 -0.19440478 0.57500005 1.7795962e-38
0.051017147 -0.19474286 0.57600003 1.7703767e-38
0.052204765 -0.19508095 0.57700002 1.7703767e-38
0.053303812 -0.19508095 0.57700002 1.7611219e-38
0.054402858 -0.19508095 0.57700002 1.7703415e-38
0.055501904 -0.19508095 0.57700002 1.7611571e-38
0.056699049 -0.19541904 0.57800001 1.7611571e-38
0.057800002 -0.19541904 0.57800001 1.7611219e-38
0.059002861 -0.19575715 0.57900006 1.7519024e-38
0.060209528 -0.19609524 0.58000004 1.7427184e-38
0.061314289 -0.19609524 0.58000004 1.7427184e-38
0.062419057 -0.19609524 0.58000004 1.7519024e-38
0.063633338 -0.19643334 0.58100003 1.7519024e-38
0.064740002 -0.19643334 0.58100003 1.742718e-38
0.065960005 -0.19677143 0.58200002 1.7334984e-38
0.067183807 -0.19710952 0.583 1.7242793e-38
0.068411432 -0.19744764 0.58400005 1.7242793e-38
0.069523819 -0.19744764 0.58400005 1.7242793e-38
0.070878096 -0.19812383 0.58600003 1.7242793e-38
0.072117142 -0.19846191 0.58700001 1.7058045e-38
0.073359996 -0.1988 0.588 1.696585e-38
0.074606672 -0.1991381 0.58900005 1.7057683e-38
0.07572858 -0.1991381 0.58900005 1.6965487e-38
0.076980956 -0.1994762 0.59000003 1.6965841e-38
0.078104764 -0.1994762 0.59000003 1.6597059e-38
0.079362854 -0.19981429 0.59100002 1.6320832e-38
-0.01682 -0.20474 0.60900003 2.0193392e-38
-0.015634285 -0.20440382 0.60800004 2.019232e-38
-0.014428572 -0.20373143 0.60600001 1.6412299e-38
-0.013230477 -0.20305905 0.60400003 1.3740438e-38
-0.012 -0.20171429 0.60000002 1.3556046e-38
-0.010820953 -0.20104192 0.59800005 1.4107791e-38
-0.0096657146 -0.20070571 0.597 1.4199987e-38
-0.008514286 -0.20036952 0.59600002 1.4199607e-38
-0.007366667 -0.20003334 0.59500003 1.4383998e-38
-0.0062123816 -0.19936098 0.59300005 1.4475489e-38
-0.0050742859 -0.19902475 0.59200001 1.4752076e-38
-0.0039333333 -0.19835238 0.59000003 1.4752781e-38
-0.0028000001 -0.19768 0.588 1.4660585e-38
-0.0016771429 -0.19734381 0.58700001 1.4660599e-38
-0.00055809523 -0.19700761 0.58600003 1.5029381e-38
0.00055714289 -0.19667144 0.58500004 1.4937898e-38
0.0016685715 -0.19633526 0.58400005 1.5122289e-38
0.0027809527 -0.19633526 0.58400005 1.5121943e-38
0.0038866664 -0.19599904 0.583 1.5121943e-38
0.0049885712 -0.19566286 0.58200002 1.5305249e-38
0.0060866671 -0.19532669 0.58100003 1.5397445e-38
0.0071809529 -0.1949905 0.58000004 1.5398516e-38
0.0082714288 -0.1946543 0.57900006 1.5675103e-38
0.009358095 -0.19431809 0.57800001 1.5766577e-38
0.010440952 -0.19398192 0.57700002 1.5766577e-38
0.01154 -0.19398192 0.57700002 1.5767298e-38
0.012617144 -0.19364573 0.57600003 1.6043885e-38
0.013690477 -0.19330955 0.57500005 1.5859125e-38
0.014785715 -0.19330955 0.57500005 1.6227908e-38
0.015853332 -0.19297333 0.574 1.6227911e-38
0.016917143 -0.19263715 0.57300001 1.6227911e-38
0.018008571 -0.19263715 0.57300001 1.6411953e-38
0.019099999 -0.19263715 0.57300001 1.6596344e-38
0.020191429 -0.19263715 0.57300001 1.6596693e-38
0.021282857 -0.19263715 0.57300001 1.6781084e-38
0.022374285 -0.19263715 0.57300001 1.6780728e-38
0.023465713 -0.19263715 0.57300001 1.6780728e-38
0.024557142 -0.19263715 0.57300001 1.6872927e-38
0.025648572 -0.19263715 0.57300001 1.7057318e-38
0.026740002 -0.19263715 0.57300001 1.7148795e-38
0.02783143 -0.19263715 0.57300001 1.7333186e-38
0.028922858 -0.19263715 0.57300001 1.7149511e-38
0.030014286 -0.19263715 0.57300001 1.7426098e-38
0.031051429 -0.19230096 0.57200003 1.7334621e-38
0.032084763 -0.19196478 0.57100004 1.7426817e-38
0.03317238 -0.19196478 0.57100004 1.7518296e-38
0.034320004 -0.19230096 0.57200003 1.7426101e-38
0.035471432 -0.19263715 0.57300001 1.7334258e-38
0.03656286 -0.19263715 0.57300001 1.7610845e-38
0.037654288 -0.19263715 0.57300001 1.7702685e-38
0.038745716 -0.19263715 0.57300001 1.7610489e-38
0.039906666 -0.19297333 0.574 1.7519015e-38
0.040999997 -0.19297333 0.574 1.7611211e-38
0.042093333 -0.19297333 0.574 1.7703406e-38
0.043186668 -0.19297333 0.574 1.7703406e-38
0.04428 -0.19297333 0.574 1.7611575e-38
0.045373332 -0.19297333 0.574 1.7703771e-38
0.046466667 -0.19297333 0.574 1.779525e-38
0.047559999 -0.19297333 0.574 1.779525e-38
0.048738096 -0.19330955 0.57500005 1.7795602e-38
0.049920004 -0.19364573 0.57600003 1.7795602e-38
0.051017147 -0.19364573 0.57600003 1.7795602e-38
0.052204765 -0.19398192 0.57700002 1.7795602e-38
0.053303812 -0.19398192 0.57700002 1.779525e-38
0.054402858 -0.19398192 0.57700002 1.7887446e-38
0.055501904 -0.19398192 0.57700002 1.7611571e-38
0.056699049 -0.19431809 0.57800001 1.7611571e-38
0.057900004 -0.1946543 0.57900006 1.7703406e-38
0.059002861 -0.1946543 0.57900006 1.7611211e-38
0.060209528 -0.1949905 0.58000004 1.7519375e-38
0.061314289 -0.1949905 0.58000004 1.7611571e-38
0.062419057 -0.1949905 0.58000004 1.7427184e-38
0.063633338 -0.19532669 0.58100003 1.7334988e-38
0.064851433 -0.19566286 0.58200002 1.7334984e-38
0.065960005 -0.19566286 0.58200002 1.7334984e-38
0.067183807 -0.19599904 0.583 1.7426828e-38
0.068411432 -0.19633526 0.58400005 1.7334632e-38
0.069523819 -0.19633526 0.58400005 1.7150597e-38
0.070878096 -0.19700761 0.58600003 1.7150597e-38
0.072117142 -0.19734381 0.58700001 1.7057683e-38
0.073359996 -0.19768 0.588 1.7057683e-38
0.074606672 -0.19801621 0.58900005 1.696549e-38
0.07572858 -0.19801621 0.58900005 1.6873294e-38
0.07711143 -0.19868857 0.59100002 1.6873643e-38
0.078237146 -0.19868857 0.59100002 1.6597056e-38
0.079631433 -0.19936098 0.59300005 1.6320832e-38
0.081441909 -0.20104192 0.59800005 1.5675463e-38
-0.018039048 -0.20424856 0.611 1.9547669e-38
-0.01684762 -0.20391428 0.61000001 2.0008648e-38
-0.015660001 -0.20358001 0.60900003 2.0007931e-38
-0.014500001 -0.20358001 0.60900003 1.6688889e-38
-0.013230477 -0.20190859 0.60400003 1.4293247e-38
-0.01198 -0.20023715 0.59900004 1.3647878e-38
-0.010820953 -0.19990286 0.59800005 1.4199621e-38
-0.0096657146 -0.19956857 0.597 1.4291816e-38
-0.008514286 -0.19923428 0.59600002 1.419997e-38
-0.0073790476 -0.19923428 0.59600002 1.4476557e-38
-0.0062228576 -0.19856574 0.59400004 1.4476557e-38
-0.0050742859 -0.19789715 0.59200001 1.4660948e-38
-0.0039333333 -0.19722858 0.59000003 1.4752781e-38
-0.002804762 -0.1968943 0.58900005 1.4752781e-38
-0.0016771429 -0.19622572 0.58700001 1.4568403e-38
-0.00055809523 -0.19589143 0.58600003 1.5121577e-38
0.00055714289 -0.19555715 0.58500004 1.5030449e-38
0.0016714287 -0.19555715 0.58500004 1.5122645e-38
0.0027809527 -0.19522288 0.58400005 1.5214133e-38
0.0038866664 -0.19488856 0.583 1.5214133e-38
0.0049885712 -0.1945543 0.58200002 1.5397797e-38
0.0060866671 -0.19422001 0.58100003 1.5489992e-38
0.0071809529 -0.19388573 0.58000004 1.5582185e-38
0.0082714288 -0.19355145 0.57900006 1.5766577e-38
0.009374287 -0.19355145 0.57900006 1.5766577e-38
0.010459048 -0.19321714 0.57800001 1.5766577e-38
0.01154 -0.19288287 0.57700002 1.5675103e-38
0.012639049 -0.19288287 0.57700002 1.5859494e-38
0.013714286 -0.19254857 0.57600003 1.5767293e-38
0.014785715 -0.1922143 0.57500005 1.6136075e-38
0.015880954 -0.1922143 0.57500005 1.6227911e-38
0.016946668 -0.19188 0.574 1.6320106e-38
0.01804 -0.19188 0.574 1.6411946e-38
0.019133333 -0.19188 0.574 1.6596337e-38
0.020191429 -0.19154571 0.57300001 1.6596693e-38
0.021282857 -0.19154571 0.57300001 1.6781084e-38
0.022374285 -0.19154571 0.57300001 1.6780728e-38
0.023465713 -0.19154571 0.57300001 1.6780728e-38
0.024599999 -0.19188 0.574 1.6872924e-38
0.025693333 -0.19188 0.574 1.7057315e-38
0.026786666 -0.19188 0.574 1.7149151e-38
0.02788 -0.19188 0.574 1.7241346e-38
0.028922858 -0.19154571 0.57300001 1.7149151e-38
0.030014286 -0.19154571 0.57300001 1.7425738e-38
0.031105714 -0.19154571 0.57300001 1.7333905e-38
0.032140952 -0.19121143 0.57200003 1.7518296e-38
0.033230476 -0.19121143 0.57200003 1.7518296e-38
0.03438 -0.19154571 0.57300001 1.7518296e-38
0.035533335 -0.19188 0.574 1.7518296e-38
0.036626667 -0.19188 0.574 1.7794883e-38
0.037719999 -0.19188 0.574 1.7887076e-38
0.038813334 -0.19188 0.574 1.7702685e-38
0.039906666 -0.19188 0.574 1.7519015e-38
0.040999997 -0.19188 0.574 1.7795602e-38
0.042093333 -0.19188 0.574 1.7795602e-38
0.043186668 -0.19188 0.574 1.7795602e-38
0.044357147 -0.1922143 0.57500005 1.7795602e-38
0.045531429 -0.19254857 0.57600003 1.7795602e-38
0.046547621 -0.1922143 0.57500005 1.7795248e-38
0.047642861 -0.1922143 0.57500005 1.7795248e-38
0.048822861 -0.19254857 0.57600003 1.7795602e-38
0.049920004 -0.19254857 0.57600003 1.7795602e-38
0.051105715 -0.19288287 0.57700002 1.7703767e-38
0.052204765 -0.19288287 0.57700002 1.7703767e-38
0.053303812 -0.19288287 0.57700002 1.7795962e-38
0.054497141 -0.19321714 0.57800001 1.7703767e-38
0.055598095 -0.19321714 0.57800001 1.7795602e-38
0.056699049 -0.19321714 0.57800001 1.7795602e-38
0.057800002 -0.19321714 0.57800001 1.7611571e-38
0.058900952 -0.19321714 0.57800001 1.7611571e-38
0.060209528 -0.19388573 0.58000004 1.7519731e-38
0.061314289 -0.19388573 0.58000004 1.7519731e-38
0.062419057 -0.19388573 0.58000004 1.7242793e-38
0.063633338 -0.19422001 0.58100003 1.7334988e-38
0.064851433 -0.1945543 0.58200002 1.7426817e-38
0.066073328 -0.19488856 0.583 1.7519012e-38
0.067299053 -0.19522288 0.58400005 1.7426828e-38
0.068411432 -0.19522288 0.58400005 1.7334632e-38
0.069642864 -0.19555715 0.58500004 1.7150597e-38
0.070878096 -0.19589143 0.58600003 1.7150597e-38
0.072117142 -0.19622572 0.58700001 1.7057683e-38
0.073484764 -0.1968943 0.58900005 1.7057683e-38
0.074606672 -0.1968943 0.58900005 1.6965487e-38
0.07585714 -0.19722858 0.59000003 1.6873291e-38
0.077241905 -0.19789715 0.59200001 1.6597423e-38
0.078369528 -0.19789715 0.59200001 1.6505228e-38
0.079900004 -0.19890001 0.59500003 1.6135373e-38
0.081441909 -0.19990286 0.59800005 1.5490004e-38
0.082995243 -0.20090571 0.60100001 1.4386153e-38
-0.018039048 -0.20308475 0.611 1.9455474e-38
-0.01684762 -0.20275238 0.61000001 1.9824256e-38
-0.015660001 -0.20242001 0.60900003 2.0100127e-38
-0.014500001 -0.20242001 0.60900003 1.6965476e-38
-0.013230477 -0.2007581 0.60400003 1.4292893e-38
-0.01198 -0.1990962 0.59900004 1.3555328e-38
-0.010820953 -0.19876382 0.59800005 1.4015227e-38
-0.0096657146 -0.19843142 0.597 1.4199618e-38
-0.008514286 -0.19809906 0.59600002 1.4291453e-38
-0.0073790476 -0.19809906 0.59600002 1.456804e-38
-0.0062228576 -0.19743429 0.59400004 1.4568389e-38
-0.0050742859 -0.19676952 0.59200001 1.4660585e-38
-0.0039333333 -0.19610478 0.59000003 1.4935733e-38
-0.002804762 -0.19577239 0.58900005 1.4843537e-38
-0.0016771429 -0.19510762 0.58700001 1.465988e-38
-0.00055904762 -0.19510762 0.58700001 1.5305249e-38
0.00055809523 -0.19477524 0.58600003 1.5122276e-38
0.0016714287 -0.19444287 0.58500004 1.5214472e-38
0.0027809527 -0.1941105 0.58400005 1.5305598e-38
0.0038933335 -0.1941105 0.58400005 1.5397794e-38
0.0049971431 -0.19377808 0.583 1.5397794e-38
0.0060866671 -0.19311334 0.58100003 1.5397794e-38
0.0071809529 -0.19278096 0.58000004 1.530632e-38
0.0082857152 -0.19278096 0.58000004 1.5582907e-38
0.009374287 -0.19244859 0.57900006 1.5766932e-38
0.010459048 -0.19211619 0.57800001 1.5766932e-38
0.01154 -0.19178382 0.57700002 1.5674748e-38
0.012639049 -0.19178382 0.57700002 1.5766944e-38
0.013714286 -0.19145145 0.57600003 1.5859494e-38
0.014811429 -0.19145145 0.57600003 1.6043885e-38
0.015880954 -0.19111906 0.57500005 1.6227555e-38
0.016976191 -0.19111906 0.57500005 1.6227555e-38
0.01807143 -0.19111906 0.57500005 1.6319753e-38
0.019166669 -0.19111906 0.57500005 1.6411949e-38
0.020226667 -0.19078667 0.574 1.6504144e-38
0.02132 -0.19078667 0.574 1.6688536e-38
0.022452382 -0.19111906 0.57500005 1.6688533e-38
0.023547621 -0.19111906 0.57500005 1.6872924e-38
0.024642859 -0.19111906 0.57500005 1.696476e-38
0.025693333 -0.19078667 0.574 1.7149151e-38
0.026786666 -0.19078667 0.574 1.7149151e-38
0.02788 -0.19078667 0.574 1.7425738e-38
0.028973334 -0.19078667 0.574 1.7333542e-38
0.030066665 -0.19078667 0.574 1.7702325e-38
0.031105714 -0.19045429 0.57300001 1.7426105e-38
0.03219714 -0.19045429 0.57300001 1.7518301e-38
0.033288572 -0.19045429 0.57300001 1.7610492e-38
0.03438 -0.19045429 0.57300001 1.7702688e-38
0.035533335 -0.19078667 0.574 1.779525e-38
0.036626667 -0.19078667 0.574 1.7703055e-38
0.037719999 -0.19078667 0.574 1.7703406e-38
0.038813334 -0.19078667 0.574 1.7795602e-38
0.039906666 -0.19078667 0.574 1.7703406e-38
0.041071434 -0.19111906 0.57500005 1.7979993e-38
0.042166673 -0.19111906 0.57500005 1.7887443e-38
0.043261908 -0.19111906 0.57500005 1.7703052e-38
0.044357147 -0.19111906 0.57500005 1.7795602e-38
0.045531429 -0.19145145 0.57600003 1.7887798e-38
0.046628572 -0.19145145 0.57600003 1.7703055e-38
0.047725718 -0.19145145 0.57600003 1.7610859e-38
0.048822861 -0.19145145 0.57600003 1.7611211e-38
0.050006669 -0.19178382 0.57700002 1.7795602e-38
0.051105715 -0.19178382 0.57700002 1.7795602e-38
0.052204765 -0.19178382 0.57700002 1.7795602e-38
0.053396191 -0.19211619 0.57800001 1.7795602e-38
0.054497141 -0.19211619 0.57800001 1.7703406e-38
0.055598095 -0.19211619 0.57800001 1.7703404e-38
0.056699049 -0.19211619 0.57800001 1.7795599e-38
0.057800002 -0.19211619 0.57800001 1.7611211e-38
0.058900952 -0.19211619 0.57800001 1.7611211e-38
0.060209528 -0.19278096 0.58000004 1.751901e-38
0.061314289 -0.19278096 0.58000004 1.7426814e-38
0.062419057 -0.19278096 0.58000004 1.7242793e-38
0.063633338 -0.19311334 0.58100003 1.7242793e-38
0.064851433 -0.19344573 0.58200002 1.7334618e-38
0.066073328 -0.19377808 0.583 1.7426814e-38
0.067299053 -0.1941105 0.58400005 1.742682e-38
0.068411432 -0.1941105 0.58400005 1.7334624e-38
0.069642864 -0.19444287 0.58500004 1.7242074e-38
0.070999049 -0.19510762 0.58700001 1.7242074e-38
0.072117142 -0.19510762 0.58700001 1.7241707e-38
0.073484764 -0.19577239 0.58900005 1.7149511e-38
0.074733332 -0.19610478 0.59000003 1.6873294e-38
0.075985715 -0.19643715 0.59100002 1.6873294e-38
0.077502862 -0.19743429 0.59400004 1.6597423e-38
0.078766666 -0.19776668 0.59500003 1.6597423e-38
0.080168575 -0.19843142 0.597 1.6227934e-38
0.081578098 -0.1990962 0.59900004 1.5398174e-38
0.082857139 -0.19942857 0.60000002 1.4295046e-38
-0.018009523 -0.20159048 0.61000001 1.9455474e-38
-0.01684762 -0.20159048 0.61000001 1.9916452e-38
-0.015660001 -0.20126002 0.60900003 2.0100124e-38
-0.014500001 -0.20126002 0.60900003 1.6965473e-38
-0.013318096 -0.20092954 0.60800004 1.4292895e-38
-0.01198 -0.19795525 0.59900004 1.3647526e-38
-0.010839048 -0.19795525 0.59900004 1.4107422e-38
-0.0096819047 -0.19762477 0.59800005 1.4199618e-38
-0.0085285716 -0.19729428 0.597 1.4015581e-38
-0.0073790476 -0.19696382 0.59600002 1.4476559e-38
-0.0062228576 -0.19630286 0.59400004 1.4568389e-38
-0.0050742859 -0.19564191 0.59200001 1.4568389e-38
-0.0039333333 -0.19498096 0.59000003 1.4843181e-38
-0.002804762 -0.19465049 0.58900005 1.4935377e-38
-0.0016771429 -0.19398953 0.58700001 1.4660232e-38
-0.00055904762 -0.19398953 0.58700001 1.512121e-38
0.00055809523 -0.19365905 0.58600003 1.51212e-38
0.0016714287 -0.19332857 0.58500004 1.51212e-38
0.0027857143 -0.19332857 0.58500004 1.50283e-38
0.0038933335 -0.1929981 0.58400005 1.5304887e-38
0.0049971431 -0.19266762 0.583 1.5122293e-38
0.0060971431 -0.19233716 0.58200002 1.5306684e-38
0.0071933335 -0.19200668 0.58100003 1.539851e-38
0.0082857152 -0.1916762 0.58000004 1.5675097e-38
0.009374287 -0.19134574 0.57900006 1.56751e-38
0.010477144 -0.19134574 0.57900006 1.56751e-38
0.01156 -0.19101524 0.57800001 1.5858775e-38
0.012639049 -0.19068477 0.57700002 1.5858775e-38
0.013738095 -0.19068477 0.57700002 1.5951687e-38
0.014837143 -0.19068477 0.57700002 1.6136078e-38
0.01593619 -0.19068477 0.57700002 1.6227911e-38
0.017035238 -0.19068477 0.57700002 1.6227911e-38
0.018134287 -0.19068477 0.57700002 1.6411586e-38
0.019233335 -0.19068477 0.57700002 1.6503781e-38
0.020297145 -0.19035429 0.57600003 1.6504144e-38
0.021394286 -0.19035429 0.57600003 1.6688536e-38
0.022452382 -0.19002381 0.57500005 1.6688533e-38
0.023547621 -0.19002381 0.57500005 1.696512e-38
0.024642859 -0.19002381 0.57500005 1.7056955e-38
0.025738096 -0.19002381 0.57500005 1.7149151e-38
0.026786666 -0.18969333 0.574 1.7149148e-38
0.02788 -0.18969333 0.574 1.7425735e-38
0.028973334 -0.18969333 0.574 1.7425735e-38
0.030066665 -0.18969333 0.574 1.7517931e-38
0.031159999 -0.18969333 0.574 1.7334269e-38
0.032253332 -0.18969333 0.574 1.7426465e-38
0.033346668 -0.18969333 0.574 1.7519015e-38
0.03444 -0.18969333 0.574 1.7703406e-38
0.035595242 -0.19002381 0.57500005 1.7703055e-38
0.036690477 -0.19002381 0.57500005 1.7703055e-38
0.037785716 -0.19002381 0.57500005 1.7611211e-38
0.038880955 -0.19002381 0.57500005 1.7703406e-38
0.039976191 -0.19002381 0.57500005 1.7518661e-38
0.041071434 -0.19002381 0.57500005 1.7887443e-38
0.042166673 -0.19002381 0.57500005 1.7795602e-38
0.043261908 -0.19002381 0.57500005 1.7795602e-38
0.044434287 -0.19035429 0.57600003 1.7795599e-38
0.045531429 -0.19035429 0.57600003 1.7887795e-38
0.046628572 -0.19035429 0.57600003 1.7518663e-38
0.047725718 -0.19035429 0.57600003 1.7610859e-38
0.048907619 -0.19068477 0.57700002 1.7702688e-38
0.050006669 -0.19068477 0.57700002 1.7794883e-38
0.051105715 -0.19068477 0.57700002 1.7518663e-38
0.052295238 -0.19101524 0.57800001 1.779525e-38
0.053396191 -0.19101524 0.57800001 1.7795602e-38
0.054497141 -0.19101524 0.57800001 1.7795602e-38
0.055598095 -0.19101524 0.57800001 1.7795602e-38
0.056699049 -0.19101524 0.57800001 1.7795602e-38
0.057900004 -0.19134574 0.57900006 1.7703406e-38
0.059002861 -0.19134574 0.57900006 1.7703406e-38
0.060209528 -0.1916762 0.58000004 1.7519731e-38
0.061314289 -0.1916762 0.58000004 1.7427536e-38
0.062419057 -0.1916762 0.58000004 1.7426828e-38
0.063633338 -0.19200668 0.58100003 1.7426828e-38
0.064962856 -0.19266762 0.583 1.7426817e-38
0.066186674 -0.1929981 0.58400005 1.7519012e-38
0.067299053 -0.1929981 0.58400005 1.7334624e-38
0.06852857 -0.19332857 0.58500004 1.7334624e-38
0.069761902 -0.19365905 0.58600003 1.7242425e-38
0.070999049 -0.19398953 0.58700001 1.7242425e-38
0.072239995 -0.19431999 0.588 1.715023e-38
0.073609523 -0.19498096 0.59000003 1.7058034e-38
0.074860007 -0.19531144 0.59100002 1.6873646e-38
0.076114282 -0.19564191 0.59200001 1.6873646e-38
0.077502862 -0.19630286 0.59400004 1.6505228e-38
0.078766666 -0.19663334 0.59500003 1.6413032e-38
0.080168575 -0.19729428 0.597 1.6411597e-38
0.081441909 -0.19762477 0.59800005 1.5120858e-38
0.082857139 -0.19828573 0.60000002 1.401666e-38
-0.018009523 -0.20042858 0.61000001 1.9731695e-38
-0.01684762 -0.20042858 0.61000001 2.0192673e-38
-0.015660001 -0.2001 0.60900003 2.019232e-38
-0.014500001 -0.2001 0.60900003 1.7057668e-38
-0.013274285 -0.19911429 0.60600001 1.4385457e-38
-0.01212 -0.19911429 0.60600001 1.3740087e-38
-0.010839048 -0.1968143 0.59900004 1.4015227e-38
-0.0096819047 -0.19648573 0.59800005 1.4199618e-38
-0.0085285716 -0.19615714 0.597 1.4291453e-38
-0.0073790476 -0.19582857 0.59600002 1.4660236e-38
-0.0062228576 -0.19517143 0.59400004 1.4568389e-38
-0.0050742859 -0.19451429 0.59200001 1.4383998e-38
-0.0039333333 -0.19385716 0.59000003 1.456804e-38
-0.002804762 -0.19352859 0.58900005 1.4844627e-38
-0.0016799999 -0.19319999 0.588 1.4660951e-38
-0.00055904762 -0.19287142 0.58700001 1.5029733e-38
0.00055809523 -0.19254287 0.58600003 1.5028651e-38
0.0016714287 -0.1922143 0.58500004 1.5028651e-38
0.0027857143 -0.1922143 0.58500004 1.5120498e-38
0.0038933335 -0.19188572 0.58400005 1.5212694e-38
0.0050057149 -0.19188572 0.58400005 1.5212701e-38
0.006107619 -0.19155714 0.583 1.5581483e-38
0.007205714 -0.19122858 0.58200002 1.5398866e-38
0.0082857152 -0.19057144 0.58000004 1.5583257e-38
0.0093904771 -0.19057144 0.58000004 1.56751e-38
0.010477144 -0.19024287 0.57900006 1.5582904e-38
0.011580002 -0.19024287 0.57900006 1.5766579e-38
0.012682858 -0.19024287 0.57900006 1.5858775e-38
0.013761904 -0.18991429 0.57800001 1.5950968e-38
0.014862857 -0.18991429 0.57800001 1.631975e-38
0.01596381 -0.18991429 0.57800001 1.6227911e-38
0.017064763 -0.18991429 0.57800001 1.6227911e-38
0.018165713 -0.18991429 0.57800001 1.6227562e-38
0.019233335 -0.18958572 0.57700002 1.6411953e-38
0.020332381 -0.18958572 0.57700002 1.6504144e-38
0.021394286 -0.18925716 0.57600003 1.6872927e-38
0.022491429 -0.18925716 0.57600003 1.6780731e-38
0.023588574 -0.18925716 0.57600003 1.6872927e-38
0.024642859 -0.18892859 0.57500005 1.7056952e-38
0.025738096 -0.18892859 0.57500005 1.7056952e-38
0.026833337 -0.18892859 0.57500005 1.7056955e-38
0.02788 -0.1886 0.574 1.7333542e-38
0.028973334 -0.1886 0.574 1.7426091e-38
0.030066665 -0.1886 0.574 1.7333895e-38
0.031159999 -0.1886 0.574 1.7333905e-38
0.032253332 -0.1886 0.574 1.7518296e-38
0.033346668 -0.1886 0.574 1.7426465e-38
0.03444 -0.1886 0.574 1.7610856e-38
0.035595242 -0.18892859 0.57500005 1.7611211e-38
0.036690477 -0.18892859 0.57500005 1.7519015e-38
0.037785716 -0.18892859 0.57500005 1.7610492e-38
0.038880955 -0.18892859 0.57500005 1.7610492e-38
0.039976191 -0.18892859 0.57500005 1.7610856e-38
0.041071434 -0.18892859 0.57500005 1.7795248e-38
0.042240001 -0.18925716 0.57600003 1.7795599e-38
0.043337144 -0.18925716 0.57600003 1.7611208e-38
0.044434287 -0.18925716 0.57600003 1.7703406e-38
0.04561048 -0.18958572 0.57700002 1.7979993e-38
0.046709526 -0.18958572 0.57700002 1.779525e-38
0.047808573 -0.18958572 0.57700002 1.7703055e-38
0.048907619 -0.18958572 0.57700002 1.7794887e-38
0.050006669 -0.18958572 0.57700002 1.7887083e-38
0.051194288 -0.18991429 0.57800001 1.7702702e-38
0.052295238 -0.18991429 0.57800001 1.7794897e-38
0.053396191 -0.18991429 0.57800001 1.7795602e-38
0.054497141 -0.18991429 0.57800001 1.7795602e-38
0.055598095 -0.18991429 0.57800001 1.7795599e-38
0.056797147 -0.19024287 0.57900006 1.7795599e-38
0.057900004 -0.19024287 0.57900006 1.7795599e-38
0.059002861 -0.19024287 0.57900006 1.7703404e-38
0.060209528 -0.19057144 0.58000004 1.7611571e-38
0.061314289 -0.19057144 0.58000004 1.7519375e-38
0.062526666 -0.1909 0.58100003 1.7519029e-38
0.063742854 -0.19122858 0.58200002 1.7426834e-38
0.064962856 -0.19155714 0.583 1.7519015e-38
0.066186674 -0.19188572 0.58400005 1.7519015e-38
0.067414291 -0.1922143 0.58500004 1.7334624e-38
0.06852857 -0.1922143 0.58500004 1.7334624e-38
0.069761902 -0.19254287 0.58600003 1.7242428e-38
0.071120001 -0.19319999 0.588 1.7150233e-38
0.072362863 -0.19352859 0.58900005 1.7241707e-38
0.073734291 -0.19418572 0.59100002 1.7149511e-38
0.074986666 -0.19451429 0.59200001 1.6873646e-38
0.076242864 -0.19484288 0.59300005 1.6873646e-38
0.077502862 -0.19517143 0.59400004 1.6413028e-38
0.078766666 -0.1955 0.59500003 1.6228636e-38
0.080168575 -0.19615714 0.597 1.631975e-38
0.081441909 -0.19648573 0.59800005 1.5029012e-38
-0.018009523 -0.19926667 0.61000001 1.9732414e-38
-0.01684762 -0.19926667 0.61000001 2.0101196e-38
-0.015660001 -0.19894001 0.60900003 2.0100843e-38
-0.014500001 -0.19894001 0.60900003 1.7242779e-38
-0.013274285 -0.19796 0.60600001 1.4569848e-38
-0.01212 -0.19796 0.60600001 1.3555696e-38
-0.010839048 -0.19567335 0.59900004 1.4015581e-38
-0.0096819047 -0.19534668 0.59800005 1.4199973e-38
-0.0085285716 -0.19501999 0.597 1.4383645e-38
-0.0073790476 -0.19469334 0.59600002 1.4475841e-38
-0.0062228576 -0.19404002 0.59400004 1.4383642e-38
-0.0050828573 -0.19371335 0.59300005 1.4475838e-38
-0.0039400002 -0.19306001 0.59100002 1.4475841e-38
-0.002804762 -0.19240668 0.58900005 1.4844623e-38
-0.0016799999 -0.19208001 0.588 1.4660945e-38
-0.00055904762 -0.19175333 0.58700001 1.4937532e-38
0.00055809523 -0.19142666 0.58600003 1.4845336e-38
0.0016742859 -0.19142666 0.58600003 1.5029728e-38
0.0027857143 -0.19110002 0.58500004 1.5305238e-38
0.0039000001 -0.19110002 0.58500004 1.5213043e-38
0.0050057149 -0.19077334 0.58400005 1.5120861e-38
0.006107619 -0.19044666 0.583 1.5397448e-38
0.007218095 -0.19044666 0.583 1.5213759e-38
0.0083142864 -0.19012001 0.58200002 1.5674737e-38
0.0094066672 -0.18979333 0.58100003 1.5674384e-38
0.010495238 -0.18946669 0.58000004 1.5766579e-38
0.011600001 -0.18946669 0.58000004 1.5858775e-38
0.012682858 -0.18914001 0.57900006 1.5858775e-38
0.013785715 -0.18914001 0.57900006 1.5950968e-38
0.014888573 -0.18914001 0.57900006 1.6135359e-38
0.01596381 -0.18881333 0.57800001 1.6043166e-38
0.017064763 -0.18881333 0.57800001 1.6227557e-38
0.018165713 -0.18881333 0.57800001 1.6227562e-38
0.019233335 -0.18848668 0.57700002 1.6504149e-38
0.020332381 -0.18848668 0.57700002 1.6504142e-38
0.021394286 -0.18816 0.57600003 1.6780728e-38
0.022491429 -0.18816 0.57600003 1.659634e-38
0.023588574 -0.18816 0.57600003 1.6872927e-38
0.024685716 -0.18816 0.57600003 1.7056955e-38
0.025738096 -0.18783335 0.57500005 1.7149151e-38
0.026833337 -0.18783335 0.57500005 1.7149148e-38
0.027928574 -0.18783335 0.57500005 1.7425735e-38
0.029023811 -0.18783335 0.57500005 1.7425738e-38
0.030119048 -0.18783335 0.57500005 1.7425738e-38
0.031214288 -0.18783335 0.57500005 1.7333909e-38
0.032253332 -0.18750666 0.574 1.7518301e-38
0.033346668 -0.18750666 0.574 1.7334269e-38
0.034500003 -0.18783335 0.57500005 1.7610856e-38
0.035595242 -0.18783335 0.57500005 1.7611211e-38
0.036690477 -0.18783335 0.57500005 1.7611211e-38
0.037785716 -0.18783335 0.57500005 1.7611211e-38
0.038880955 -0.18783335 0.57500005 1.7519015e-38
0.039976191 -0.18783335 0.57500005 1.7703406e-38
0.041142859 -0.18816 0.57600003 1.7703406e-38
0.042240001 -0.18816 0.57600003 1.7703406e-38
0.043337144 -0.18816 0.57600003 1.7703406e-38
0.04451143 -0.18848668 0.57700002 1.7703406e-38
0.04561048 -0.18848668 0.57700002 1.7795602e-38
0.046709526 -0.18848668 0.57700002 1.7887798e-38
0.047808573 -0.18848668 0.57700002 1.7795602e-38
0.048907619 -0.18848668 0.57700002 1.7794883e-38
0.050006669 -0.18848668 0.57700002 1.7887079e-38
0.051194288 -0.18881333 0.57800001 1.779525e-38
0.052295238 -0.18881333 0.57800001 1.779525e-38
0.053488575 -0.18914001 0.57900006 1.7795248e-38
0.054591436 -0.18914001 0.57900006 1.7887443e-38
0.05569429 -0.18914001 0.57900006 1.7795602e-38
0.056797147 -0.18914001 0.57900006 1.7795602e-38
0.058000006 -0.18946669 0.58000004 1.779525e-38
0.059104767 -0.18946669 0.58000004 1.779525e-38
0.060313337 -0.18979333 0.58100003 1.7611571e-38
0.061420005 -0.18979333 0.58100003 1.7611571e-38
0.062526666 -0.18979333 0.58100003 1.7518663e-38
0.063852377 -0.19044666 0.583 1.7518663e-38
0.065074287 -0.19077334 0.58400005 1.7427184e-38
0.066186674 -0.19077334 0.58400005 1.7427184e-38
0.067414291 -0.19110002 0.58500004 1.7426465e-38
0.068645716 -0.19142666 0.58600003 1.7334269e-38
0.069880955 -0.19175333 0.58700001 1.7242428e-38
0.071120001 -0.19208001 0.588 1.7242428e-38
0.072485715 -0.19273335 0.59000003 1.7426814e-38
0.073859051 -0.19338666 0.59200001 1.7058031e-38
0.075113341 -0.19371335 0.59300005 1.6965839e-38
0.076242864 -0.19371335 0.59300005 1.6965839e-38
0.077502862 -0.19404002 0.59400004 1.632048e-38
0.078766666 -0.19436666 0.59500003 1.6228285e-38
0.080168575 -0.19501999 0.597 1.6411583e-38
0.081578098 -0.19567335 0.59900004 1.5120844e-38
-0.018009523 -0.19810477 0.61000001 1.9823891e-38
-0.01684762 -0.19810477 0.61000001 2.0100477e-38
-0.015660001 -0.19778 0.60900003 2.0100843e-38
-0.014500001 -0.19778 0.60900003 1.7334974e-38
-0.013230477 -0.19615619 0.60400003 1.4661693e-38
-0.012040001 -0.19550668 0.60200006 1.3370955e-38
-0.010857143 -0.19485715 0.60000002 1.3923386e-38
-0.0096980957 -0.19453239 0.59900004 1.4199973e-38
-0.0085428581 -0.19420762 0.59800005 1.4291446e-38
-0.0073914286 -0.19388285 0.597 1.4291446e-38
-0.0062333331 -0.19323334 0.59500003 1.4383645e-38
-0.0050914288 -0.19290859 0.59400004 1.4660232e-38
-0.0039400002 -0.19193429 0.59100002 1.4660229e-38
-0.002804762 -0.19128478 0.58900005 1.484462e-38
-0.0016799999 -0.19095999 0.588 1.4844973e-38
-0.00055904762 -0.19063525 0.58700001 1.4937169e-38
0.00055809523 -0.19031048 0.58600003 1.5028649e-38
0.0016742859 -0.19031048 0.58600003 1.5397431e-38
0.0027857143 -0.18998572 0.58500004 1.5305591e-38
0.0039000001 -0.18998572 0.58500004 1.5305591e-38
0.0050057149 -0.18966097 0.58400005 1.5305252e-38
0.0061180959 -0.18966097 0.58400005 1.5489644e-38
0.007218095 -0.1893362 0.583 1.5489997e-38
0.008328571 -0.1893362 0.583 1.5674388e-38
0.0094228573 -0.18901142 0.58200002 1.5674388e-38
0.010513334 -0.18868668 0.58100003 1.5766584e-38
0.011600001 -0.18836191 0.58000004 1.5766228e-38
0.012704763 -0.18836191 0.58000004 1.5950619e-38
0.013809524 -0.18836191 0.58000004 1.5950975e-38
0.014888573 -0.18803717 0.57900006 1.5950975e-38
0.015991431 -0.18803717 0.57900006 1.6042815e-38
0.017064763 -0.18771239 0.57800001 1.6319401e-38
0.018165713 -0.18771239 0.57800001 1.6412302e-38
0.019233335 -0.18738762 0.57700002 1.6504498e-38
0.020332381 -0.18738762 0.57700002 1.6411946e-38
0.021431429 -0.18738762 0.57700002 1.6780728e-38
0.022530477 -0.18738762 0.57700002 1.6595988e-38
0.023629524 -0.18738762 0.57700002 1.678038e-38
0.024685716 -0.18706287 0.57600003 1.6780735e-38
0.025782859 -0.18706287 0.57600003 1.7149518e-38
0.02688 -0.18706287 0.57600003 1.7149151e-38
0.027977144 -0.18706287 0.57600003 1.7241346e-38
0.029074287 -0.18706287 0.57600003 1.7333542e-38
0.030119048 -0.1867381 0.57500005 1.7333542e-38
0.031214288 -0.1867381 0.57500005 1.7333553e-38
0.032309525 -0.1867381 0.57500005 1.7517945e-38
0.033404768 -0.1867381 0.57500005 1.7426465e-38
0.034500003 -0.1867381 0.57500005 1.7610856e-38
0.035657145 -0.18706287 0.57600003 1.7611208e-38
0.036690477 -0.1867381 0.57500005 1.7611208e-38
0.037785716 -0.1867381 0.57500005 1.7702688e-38
0.038880955 -0.1867381 0.57500005 1.7702688e-38
0.04004572 -0.18706287 0.57600003 1.7794883e-38
0.041142859 -0.18706287 0.57600003 1.7794883e-38
0.042313334 -0.18738762 0.57700002 1.7794883e-38
0.04341238 -0.18738762 0.57700002 1.7794883e-38
0.04451143 -0.18738762 0.57700002 1.7703406e-38
0.04561048 -0.18738762 0.57700002 1.7703406e-38
0.046709526 -0.18738762 0.57700002 1.7703406e-38
0.047808573 -0.18738762 0.57700002 1.7703406e-38
0.04899238 -0.18771239 0.57800001 1.7703052e-38
0.050093334 -0.18771239 0.57800001 1.7795248e-38
0.051194288 -0.18771239 0.57800001 1.779525e-38
0.052295238 -0.18771239 0.57800001 1.7703055e-38
0.053488575 -0.18803717 0.57900006 1.7795248e-38
0.054591436 -0.18803717 0.57900006 1.7795248e-38
0.05569429 -0.18803717 0.57900006 1.7795248e-38
0.056895241 -0.18836191 0.58000004 1.7795248e-38
0.058100004 -0.18868668 0.58100003 1.7979642e-38
0.059206668 -0.18868668 0.58100003 1.7887446e-38
0.060313337 -0.18868668 0.58100003 1.7611211e-38
0.061420005 -0.18868668 0.58100003 1.7519015e-38
0.062634282 -0.18901142 0.58200002 1.7518294e-38
0.063961908 -0.18966097 0.58400005 1.7518294e-38
0.065074287 -0.18966097 0.58400005 1.742682e-38
0.066300005 -0.18998572 0.58500004 1.742682e-38
0.067414291 -0.18998572 0.58500004 1.742682e-38
0.068645716 -0.19031048 0.58600003 1.7334624e-38
0.07 -0.19095999 0.588 1.7242074e-38
0.071240962 -0.19128478 0.58900005 1.7242074e-38
0.072608575 -0.19193429 0.59100002 1.7333902e-38
0.073983818 -0.19258381 0.59300005 1.7057315e-38
0.075113341 -0.19258381 0.59300005 1.7057315e-38
0.076371431 -0.19290859 0.59400004 1.7149511e-38
0.077633336 -0.19323334 0.59500003 1.6504512e-38
0.078766666 -0.19323334 0.59500003 1.632012e-38
0.080168575 -0.19388285 0.597 1.6227555e-38
0.081714287 -0.19485715 0.60000002 1.484462e-38
0.082995243 -0.19518191 0.60100001 1.374188e-38
-0.01684762 -0.19694287 0.61000001 2.0008285e-38
-0.015660001 -0.19662 0.60900003 1.9916096e-38
-0.014500001 -0.19662 0.60900003 1.751901e-38
-0.013230477 -0.19500573 0.60400003 1.5030826e-38
-0.012040001 -0.19436002 0.60200006 1.3371305e-38
-0.010857143 -0.19371429 0.60000002 1.3923386e-38
-0.0096980957 -0.19339144 0.59900004 1.4199973e-38
-0.0085428581 -0.19306858 0.59800005 1.4291446e-38
-0.0073914286 -0.19274572 0.597 1.4291446e-38
-0.0062438096 -0.19242287 0.59600002 1.4291449e-38
-0.0051000006 -0.19210002 0.59500003 1.4568036e-38
-0.0039466666 -0.19113143 0.59200001 1.4660229e-38
-0.0028095241 -0.19048572 0.59000003 1.484462e-38
-0.0016857143 -0.19048572 0.59000003 1.484462e-38
-0.00056000001 -0.18984 0.588 1.484462e-38
0.00055904762 -0.18951716 0.58700001 1.484462e-38
0.0016771429 -0.18951716 0.58700001 1.5029012e-38
0.0027904762 -0.18919429 0.58600003 1.5212687e-38
0.0039066668 -0.18919429 0.58600003 1.5304882e-38
0.0050142859 -0.18887144 0.58500004 1.5305249e-38
0.0061180959 -0.18854858 0.58400005 1.5581836e-38
0.0072304765 -0.18854858 0.58400005 1.5582185e-38
0.008328571 -0.18822572 0.583 1.5674381e-38
0.0094228573 -0.18790285 0.58200002 1.5674381e-38
0.010531429 -0.18790285 0.58200002 1.5858772e-38
0.01162 -0.18758002 0.58100003 1.5766944e-38
0.012726667 -0.18758002 0.58100003 1.5951335e-38
0.013809524 -0.18725716 0.58000004 1.604317e-38
0.014914286 -0.18725716 0.58000004 1.604317e-38
0.016019048 -0.18725716 0.58000004 1.5950619e-38
0.017094286 -0.18693431 0.57900006 1.6319401e-38
0.018197145 -0.18693431 0.57900006 1.6504142e-38
0.019266667 -0.18661143 0.57800001 1.6504142e-38
0.020367619 -0.18661143 0.57800001 1.6135366e-38
0.021431429 -0.18628858 0.57700002 1.6504149e-38
0.022530477 -0.18628858 0.57700002 1.6595625e-38
0.023629524 -0.18628858 0.57700002 1.6780017e-38
0.024728572 -0.18628858 0.57700002 1.668854e-38
0.02582762 -0.18628858 0.57700002 1.7149518e-38
0.02688 -0.18596572 0.57600003 1.7241346e-38
0.027977144 -0.18596572 0.57600003 1.7241346e-38
0.029074287 -0.18596572 0.57600003 1.7333186e-38
0.03017143 -0.18596572 0.57600003 1.7240991e-38
0.031268571 -0.18596572 0.57600003 1.7333193e-38
0.032309525 -0.18564287 0.57500005 1.7517584e-38
0.033404768 -0.18564287 0.57500005 1.7242074e-38
0.034500003 -0.18564287 0.57500005 1.7518661e-38
0.035657145 -0.18596572 0.57600003 1.7519012e-38
0.036754288 -0.18596572 0.57600003 1.7611208e-38
0.03785143 -0.18596572 0.57600003 1.7702688e-38
0.038948573 -0.18596572 0.57600003 1.7794883e-38
0.04004572 -0.18596572 0.57600003 1.7703406e-38
0.041142859 -0.18596572 0.57600003 1.7703406e-38
0.042313334 -0.18628858 0.57700002 1.779488e-38
0.04341238 -0.18628858 0.57700002 1.7887076e-38
0.04451143 -0.18628858 0.57700002 1.7794883e-38
0.04561048 -0.18628858 0.57700002 1.7887079e-38
0.046709526 -0.18628858 0.57700002 1.7795596e-38
0.047808573 -0.18628858 0.57700002 1.7795596e-38
0.04899238 -0.18661143 0.57800001 1.7795602e-38
0.050093334 -0.18661143 0.57800001 1.7795602e-38
0.051194288 -0.18661143 0.57800001 1.7887446e-38
0.052385718 -0.18693431 0.57900006 1.779525e-38
0.053488575 -0.18693431 0.57900006 1.7795602e-38
0.054685719 -0.18725716 0.58000004 1.7795602e-38
0.05579048 -0.18725716 0.58000004 1.7795602e-38
0.056993335 -0.18758002 0.58100003 1.7795602e-38
0.058100004 -0.18758002 0.58100003 1.779525e-38
0.059308574 -0.18790285 0.58200002 1.779525e-38
0.060417145 -0.18790285 0.58200002 1.7702688e-38
0.061525717 -0.18790285 0.58200002 1.7610492e-38
0.062634282 -0.18790285 0.58200002 1.7701969e-38
0.063961908 -0.18854858 0.58400005 1.7701969e-38
0.065185718 -0.18887144 0.58500004 1.7518301e-38
0.066300005 -0.18887144 0.58500004 1.7518301e-38
0.067414291 -0.18887144 0.58500004 1.7426465e-38
0.068645716 -0.18919429 0.58600003 1.7426465e-38
0.070119053 -0.19016287 0.58900005 1.7242074e-38
0.071361914 -0.19048572 0.59000003 1.7149878e-38
0.072731428 -0.19113143 0.59200001 1.7241707e-38
0.073983818 -0.19145431 0.59300005 1.7241707e-38
0.075113341 -0.19145431 0.59300005 1.6873291e-38
0.076371431 -0.19177715 0.59400004 1.6965487e-38
0.077633336 -0.19210002 0.59500003 1.6872931e-38
0.078899048 -0.19242287 0.59600002 1.6504149e-38
0.080168575 -0.19274572 0.597 1.6411583e-38
0.081714287 -0.19371429 0.60000002 1.4659866e-38
0.082995243 -0.19403714 0.60100001 1.3464937e-38
-0.01682 -0.19546001 0.60900003 1.9915733e-38
-0.015660001 -0.19546001 0.60900003 2.0008292e-38
-0.014500001 -0.19546001 0.60900003 1.7703401e-38
-0.013340001 -0.19546001 0.60900003 1.5031179e-38
-0.012040001 -0.19321336 0.60200006 1.3371658e-38
-0.010857143 -0.19257143 0.60000002 1.3923386e-38
-0.0097142868 -0.19257143 0.60000002 1.4199973e-38
-0.0085428581 -0.19192953 0.59800005 1.4199254e-38
-0.0073914286 -0.19160856 0.597 1.4291449e-38
-0.0062438096 -0.19128762 0.59600002 1.4291449e-38
-0.0051085716 -0.19128762 0.59600002 1.4475841e-38
-0.0039533339 -0.19032478 0.59300005 1.4660229e-38
-0.0028142859 -0.18968286 0.59100002 1.4660229e-38
-0.0016885714 -0.18968286 0.59100002 1.4752425e-38
-0.00056000001 -0.18872 0.588 1.4752425e-38
0.00056000001 -0.18872 0.588 1.4752427e-38
0.0016771429 -0.18839905 0.58700001 1.4936819e-38
0.002795238 -0.18839905 0.58700001 1.5213043e-38
0.0039066668 -0.18807811 0.58600003 1.5305238e-38
0.0050142859 -0.18775716 0.58500004 1.5305249e-38
