# .PCD v0.7 - Point Cloud Data file format
VERSION 0.7
FIELDS x y z rgb
SIZE 4 4 4 4
TYPE F F F F
COUNT 1 1 1 1
WIDTH 995
HEIGHT 1
VIEWPOINT 0 0 0 1 0 0 0
POINTS 995
DATA ascii
0.021877145 -0.18343143 0.58900005 1.6134996e-38
0.02299905 -0.18343143 0.58900005 1.6042801e-38
0.024120953 -0.18343143 0.58900005 1.6134996e-38
0.025199998 -0.18312 0.588 1.6227911e-38
0.026319999 -0.18312 0.588 1.6227911e-38
0.02744 -0.18312 0.588 1.6319387e-38
0.028511429 -0.18280858 0.58700001 1.6411583e-38
0.029579047 -0.18249714 0.58600003 1.6412302e-38
0.03064286 -0.18218572 0.58500004 1.6781084e-38
0.031702857 -0.18187431 0.58400005 1.6781084e-38
0.03281524 -0.18187431 0.58400005 1.687328e-38
0.033927623 -0.18187431 0.58400005 1.7056955e-38
0.035040002 -0.18187431 0.58400005 1.7149151e-38
0.036152385 -0.18187431 0.58400005 1.7057322e-38
0.037264764 -0.18187431 0.58400005 1.7333909e-38
0.038377147 -0.18187431 0.58400005 1.7242423e-38
0.039557148 -0.18218572 0.58500004 1.7334618e-38
0.040671431 -0.18218572 0.58500004 1.7426098e-38
0.041857142 -0.18249714 0.58600003 1.7426098e-38
0.042973336 -0.18249714 0.58600003 1.7518649e-38
0.044089526 -0.18249714 0.58600003 1.7610845e-38
0.045205716 -0.18249714 0.58600003 1.7702325e-38
0.046321906 -0.18249714 0.58600003 1.7702325e-38
0.047438096 -0.18249714 0.58600003 1.7702688e-38
0.048554286 -0.18249714 0.58600003 1.7702688e-38
0.04967048 -0.18249714 0.58600003 1.7702685e-38
0.050873332 -0.18280858 0.58700001 1.7702685e-38
0.051991429 -0.18280858 0.58700001 1.7702688e-38
0.053109523 -0.18280858 0.58700001 1.7794883e-38
0.05422762 -0.18280858 0.58700001 1.7703406e-38
0.055345718 -0.18280858 0.58700001 1.7703406e-38
0.056463812 -0.18280858 0.58700001 1.7703406e-38
0.057581905 -0.18280858 0.58700001 1.7703406e-38
0.058700003 -0.18280858 0.58700001 1.7519026e-38
0.059818096 -0.18280858 0.58700001 1.7611222e-38
0.06093619 -0.18280858 0.58700001 1.7703404e-38
0.062054284 -0.18280858 0.58700001 1.7703404e-38
0.063172385 -0.18280858 0.58700001 1.7702688e-38
0.064400002 -0.18312 0.588 1.7794883e-38
0.065742865 -0.18374287 0.59000003 1.7886713e-38
0.066866674 -0.18374287 0.59000003 1.7794517e-38
0.068105713 -0.18405429 0.59100002 1.7611211e-38
0.069348574 -0.1843657 0.59200001 1.7611211e-38
0.070476189 -0.1843657 0.59200001 1.7519015e-38
0.071603805 -0.1843657 0.59200001 1.7519015e-38
0.072854295 -0.18467715 0.59300005 1.7426817e-38
0.074108571 -0.18498857 0.59400004 1.7334621e-38
0.075366668 -0.18530001 0.59500003 1.7334624e-38
0.07675714 -0.18592285 0.597 1.7334624e-38
0.077894285 -0.18592285 0.597 1.7333902e-38
0.07916382 -0.18623431 0.59800005 1.7241707e-38
0.080571435 -0.18685715 0.60000002 1.7241707e-38
0.081714287 -0.18685715 0.60000002 1.7241707e-38
0.082995243 -0.18716858 0.60100001 1.6873646e-38
0.084280007 -0.18748002 0.60200006 1.678145e-38
0.085994281 -0.18872571 0.60600001 1.6597059e-38
0.087436199 -0.18934858 0.60800004 1.6228276e-38
0.088885717 -0.18997143 0.61000001 1.6227206e-38
0.090195239 -0.19028285 0.611 1.4383293e-38
-0.018670477 -0.20923811 0.67600006 2.0285588e-38
-0.017382858 -0.20923811 0.67600006 1.8810484e-38
-0.01609524 -0.20923811 0.67600006 1.595242e-38
-0.01480762 -0.20923811 0.67600006 1.5124474e-38
-0.0135 -0.20892857 0.67500001 1.8074731e-38
-0.012214285 -0.20892857 0.67500001 2.2035837e-38
-0.010928571 -0.20892857 0.67500001 2.3234379e-38
-0.0096571436 -0.20923811 0.67600006 2.3326213e-38
-0.008394286 -0.20985715 0.67800003 2.0929127e-38
-0.0071028573 -0.20985715 0.67800003 2.0008645e-38
-0.0052457144 -0.18942858 0.61200005 1.779595e-38
-0.0040800003 -0.18942858 0.61200005 1.4938277e-38
-0.0029142858 -0.18942858 0.61200005 1.2817778e-38
-0.0017428572 -0.18880953 0.61000001 1.3553872e-38
-0.00058095239 -0.18880953 0.61000001 1.401485e-38
0.00057999999 -0.1885 0.60900003 1.4107058e-38
0.0017371429 -0.18819048 0.60800004 1.4383645e-38
0.0028857142 -0.18757142 0.60600001 1.4659143e-38
0.0040266667 -0.18695238 0.60400003 1.4751339e-38
0.0051514283 -0.1860238 0.60100001 1.4475841e-38
0.0062857145 -0.1857143 0.60000002 1.4844623e-38
0.007416191 -0.18540478 0.59900004 1.5027572e-38
0.0085428581 -0.18509525 0.59800005 1.5211964e-38
0.0096657146 -0.18478571 0.597 1.5120491e-38
0.010802858 -0.18478571 0.597 1.5397078e-38
0.01192 -0.1844762 0.59600002 1.5397085e-38
0.013055238 -0.1844762 0.59600002 1.5304889e-38
0.014166667 -0.18416668 0.59500003 1.5304882e-38
0.015274287 -0.18385716 0.59400004 1.5489274e-38
0.016378097 -0.18354763 0.59300005 1.5581825e-38
0.01750762 -0.18354763 0.59300005 1.5950608e-38
0.018605713 -0.1832381 0.59200001 1.5858765e-38
0.019733334 -0.1832381 0.59200001 1.576657e-38
0.020790478 -0.18261907 0.59000003 1.5858765e-38
0.021914288 -0.18261907 0.59000003 1.6135352e-38
0.02299905 -0.18230954 0.58900005 1.6134996e-38
0.024120953 -0.18230954 0.58900005 1.6227192e-38
0.025242859 -0.18230954 0.58900005 1.6227908e-38
0.026364764 -0.18230954 0.58900005 1.6227908e-38
0.02744 -0.18200001 0.588 1.6412299e-38
0.028560001 -0.18200001 0.588 1.6504495e-38
0.029629523 -0.18169048 0.58700001 1.6595974e-38
0.030695237 -0.18138096 0.58600003 1.6872561e-38
0.031757142 -0.18107145 0.58500004 1.6872917e-38
0.032871433 -0.18107145 0.58500004 1.6872917e-38
0.033927623 -0.18076192 0.58400005 1.696476e-38
0.035040002 -0.18076192 0.58400005 1.7056955e-38
0.036152385 -0.18076192 0.58400005 1.6965127e-38
0.037264764 -0.18076192 0.58400005 1.7333909e-38
0.038442858 -0.18107145 0.58500004 1.7334258e-38
0.039557148 -0.18107145 0.58500004 1.7426454e-38
0.040671431 -0.18107145 0.58500004 1.7426098e-38
0.041857142 -0.18138096 0.58600003 1.7426098e-38
0.042973336 -0.18138096 0.58600003 1.7518296e-38
0.044089526 -0.18138096 0.58600003 1.7610492e-38
0.045205716 -0.18138096 0.58600003 1.7610492e-38
0.046321906 -0.18138096 0.58600003 1.7610492e-38
0.047438096 -0.18138096 0.58600003 1.7794883e-38
0.048554286 -0.18138096 0.58600003 1.7702688e-38
0.049755238 -0.18169048 0.58700001 1.7702685e-38
0.050873332 -0.18169048 0.58700001 1.7702685e-38
0.051991429 -0.18169048 0.58700001 1.7703041e-38
0.053109523 -0.18169048 0.58700001 1.7795236e-38
0.05422762 -0.18169048 0.58700001 1.7794883e-38
0.055440001 -0.18200001 0.588 1.7702688e-38
0.056559999 -0.18200001 0.588 1.7703406e-38
0.05768 -0.18200001 0.588 1.7887798e-38
0.058800001 -0.18200001 0.588 1.7611211e-38
0.059919998 -0.18200001 0.588 1.7703406e-38
0.061040003 -0.18200001 0.588 1.7794883e-38
0.062159996 -0.18200001 0.588 1.7794883e-38
0.063387625 -0.18230954 0.58900005 1.7702688e-38
0.064509533 -0.18230954 0.58900005 1.7794883e-38
0.065742865 -0.18261907 0.59000003 1.7702688e-38
0.066866674 -0.18261907 0.59000003 1.7702688e-38
0.068220958 -0.1832381 0.59200001 1.7519015e-38
0.069465719 -0.18354763 0.59300005 1.7519015e-38
0.070595242 -0.18354763 0.59300005 1.7518296e-38
0.071724765 -0.18354763 0.59300005 1.7518296e-38
0.072854295 -0.18354763 0.59300005 1.7518296e-38
0.074108571 -0.18385716 0.59400004 1.7426101e-38
0.075366668 -0.18416668 0.59500003 1.7334269e-38
0.07675714 -0.18478571 0.597 1.7518661e-38
0.078024767 -0.18509525 0.59800005 1.7333902e-38
0.079296194 -0.18540478 0.59900004 1.7149511e-38
0.080705717 -0.1860238 0.60100001 1.7241707e-38
0.081850477 -0.1860238 0.60100001 1.7333902e-38
0.08313334 -0.18633336 0.60200006 1.696512e-38
0.084280007 -0.18633336 0.60200006 1.6872924e-38
0.086420007 -0.1885 0.60900003 1.6688533e-38
0.087580003 -0.1885 0.60900003 1.6411946e-38
0.089031428 -0.18911904 0.611 1.6227925e-38
0.090195239 -0.18911904 0.611 1.4199621e-38
-0.017382858 -0.2079505 0.67600006 1.9640231e-38
-0.01609524 -0.2079505 0.67600006 1.6597775e-38
-0.01480762 -0.2079505 0.67600006 1.5675816e-38
-0.0135 -0.20764287 0.67500001 1.7335337e-38
-0.012214285 -0.20764287 0.67500001 1.9177785e-38
-0.010928571 -0.20764287 0.67500001 2.3142185e-38
-0.0096428571 -0.20764287 0.67500001 2.3234378e-38
-0.008369525 -0.2079505 0.67600006 2.1390465e-38
-0.0070819054 -0.2079505 0.67600006 2.0193392e-38
-0.0052542859 -0.18857048 0.61300004 1.8072892e-38
-0.0040866667 -0.18857048 0.61300004 1.530705e-38
-0.0029142858 -0.18826286 0.61200005 1.2909964e-38
-0.0017457142 -0.18795523 0.611 1.3370206e-38
-0.00058095239 -0.18764761 0.61000001 1.392338e-38
0.00058095239 -0.18764761 0.61000001 1.4382203e-38
0.0017371429 -0.1870324 0.60800004 1.465879e-38
0.0028952383 -0.1870324 0.60800004 1.4659146e-38
0.00404 -0.18641715 0.60600001 1.4751341e-38
0.0051600006 -0.18518668 0.60200006 1.4750985e-38
0.0062961904 -0.18487905 0.60100001 1.4843181e-38
0.007416191 -0.18426381 0.59900004 1.4843181e-38
0.0085571436 -0.18426381 0.59900004 1.5211964e-38
0.0096657146 -0.18364856 0.597 1.5120491e-38
0.010802858 -0.18364856 0.597 1.5304882e-38
0.01192 -0.18334097 0.59600002 1.5304882e-38
0.013055238 -0.18334097 0.59600002 1.5304882e-38
0.014166667 -0.18303335 0.59500003 1.5213396e-38
0.015274287 -0.18272573 0.59400004 1.5674374e-38
0.016405717 -0.18272573 0.59400004 1.5582541e-38
0.01750762 -0.18241811 0.59300005 1.5766932e-38
0.018605713 -0.18211047 0.59200001 1.5858409e-38
0.019733334 -0.18211047 0.59200001 1.5858409e-38
0.020790478 -0.18149525 0.59000003 1.613427e-38
0.021914288 -0.18149525 0.59000003 1.6318662e-38
0.023038095 -0.18149525 0.59000003 1.6227548e-38
0.024120953 -0.18118763 0.58900005 1.6227548e-38
0.025242859 -0.18118763 0.58900005 1.6227911e-38
0.026364764 -0.18118763 0.58900005 1.6412302e-38
0.02744 -0.18088 0.588 1.6412299e-38
0.028560001 -0.18088 0.588 1.6504495e-38
0.029629523 -0.18057238 0.58700001 1.6504498e-38
0.030747619 -0.18057238 0.58700001 1.6781084e-38
0.031811427 -0.18026477 0.58600003 1.6872561e-38
0.032871433 -0.17995715 0.58500004 1.6872561e-38
0.033985715 -0.17995715 0.58500004 1.696476e-38
0.035160001 -0.18026477 0.58600003 1.696476e-38
0.036276191 -0.18026477 0.58600003 1.6872208e-38
0.037392382 -0.18026477 0.58600003 1.7425382e-38
0.038508572 -0.18026477 0.58600003 1.7334258e-38
0.039624766 -0.18026477 0.58600003 1.7426454e-38
0.040740956 -0.18026477 0.58600003 1.7426098e-38
0.041857142 -0.18026477 0.58600003 1.7518294e-38
0.042973336 -0.18026477 0.58600003 1.7518294e-38
0.044089526 -0.18026477 0.58600003 1.7610489e-38
0.045205716 -0.18026477 0.58600003 1.7610489e-38
0.046321906 -0.18026477 0.58600003 1.7610489e-38
0.047438096 -0.18026477 0.58600003 1.7702685e-38
0.048637144 -0.18057238 0.58700001 1.7610489e-38
0.049755238 -0.18057238 0.58700001 1.7703041e-38
0.050873332 -0.18057238 0.58700001 1.7610845e-38
0.051991429 -0.18057238 0.58700001 1.7610842e-38
0.053109523 -0.18057238 0.58700001 1.7703038e-38
0.05432 -0.18088 0.588 1.7702685e-38
0.055440001 -0.18088 0.588 1.7702685e-38
0.056559999 -0.18088 0.588 1.7794883e-38
0.05768 -0.18088 0.588 1.7794883e-38
0.059000004 -0.18149525 0.59000003 1.7795236e-38
0.060123812 -0.18149525 0.59000003 1.7795236e-38
0.061247624 -0.18149525 0.59000003 1.7703052e-38
0.062371433 -0.18149525 0.59000003 1.7610856e-38
0.063495241 -0.18149525 0.59000003 1.7611211e-38
0.064619049 -0.18149525 0.59000003 1.7611211e-38
0.065854289 -0.18180285 0.59100002 1.7611211e-38
0.067093328 -0.18211047 0.59200001 1.7611211e-38
0.068336196 -0.18241811 0.59300005 1.7611211e-38
0.069465719 -0.18241811 0.59300005 1.7611211e-38
0.070595242 -0.18241811 0.59300005 1.7517582e-38
0.071724765 -0.18241811 0.59300005 1.7609777e-38
0.072977148 -0.18272573 0.59400004 1.7517577e-38
0.074233338 -0.18303335 0.59500003 1.7609773e-38
0.075493336 -0.18334097 0.59600002 1.7426465e-38
0.076885715 -0.18395621 0.59800005 1.7426465e-38
0.078024767 -0.18395621 0.59800005 1.7242428e-38
0.079428568 -0.18457143 0.60000002 1.7058037e-38
0.080705717 -0.18487905 0.60100001 1.7241346e-38
0.081850477 -0.18487905 0.60100001 1.7149151e-38
0.08313334 -0.18518668 0.60200006 1.678145e-38
0.084280007 -0.18518668 0.60200006 1.678145e-38
0.086561903 -0.18764761 0.61000001 1.6412668e-38
0.087723807 -0.18764761 0.61000001 1.6320472e-38
0.089031428 -0.18795523 0.611 1.6227562e-38
0.090195239 -0.18795523 0.611 1.4107062e-38
-0.016071428 -0.20635714 0.67500001 1.8717546e-38
-0.014785714 -0.20635714 0.67500001 1.6966918e-38
-0.0135 -0.20635714 0.67500001 1.6413744e-38
-0.012196191 -0.20605142 0.67400002 1.6966557e-38
-0.010912381 -0.20605142 0.67400002 2.1391929e-38
-0.0096428571 -0.20635714 0.67500001 2.2957438e-38
-0.008357143 -0.20635714 0.67500001 2.2035481e-38
-0.0070714285 -0.20635714 0.67500001 2.1022424e-38
-0.0052628573 -0.18770857 0.61400002 1.8625338e-38
-0.0040933336 -0.18770857 0.61400002 1.521523e-38
-0.0029190476 -0.18740286 0.61300004 1.2725948e-38
-0.0017485716 -0.18709715 0.61200005 1.3278732e-38
-0.00058285717 -0.18709715 0.61200005 1.3924102e-38
0.00058095239 -0.18648571 0.61000001 1.4107055e-38
0.0017400001 -0.18618001 0.60900003 1.4199251e-38
0.0028952383 -0.1858743 0.60800004 1.4659146e-38
0.00404 -0.18526286 0.60600001 1.4751341e-38
0.0051685721 -0.18434574 0.60300004 1.4475838e-38
0.0062961904 -0.18373428 0.60100001 1.4475838e-38
0.0074285716 -0.18342857 0.60000002 1.4843181e-38
0.0085571436 -0.18312286 0.59900004 1.5027572e-38
0.0096819047 -0.18281716 0.59800005 1.5028651e-38
0.010802858 -0.18251142 0.597 1.5397434e-38
0.01194 -0.18251142 0.597 1.5488904e-38
0.013055238 -0.18220572 0.59600002 1.5304512e-38
0.014190476 -0.18220572 0.59600002 1.5396345e-38
0.0153 -0.18190001 0.59500003 1.5949519e-38
0.016405717 -0.1815943 0.59400004 1.5857686e-38
0.01750762 -0.18128859 0.59300005 1.5857686e-38
0.018605713 -0.18098286 0.59200001 1.5674021e-38
0.019733334 -0.18098286 0.59200001 1.5766216e-38
0.020825714 -0.18067716 0.59100002 1.5950232e-38
0.021914288 -0.18037143 0.59000003 1.6226819e-38
0.023038095 -0.18037143 0.59000003 1.6226471e-38
0.024161905 -0.18037143 0.59000003 1.6318667e-38
0.025242859 -0.18006572 0.58900005 1.6135362e-38
0.026364764 -0.18006572 0.58900005 1.6319753e-38
0.02744 -0.17975999 0.588 1.6412299e-38
0.028560001 -0.17975999 0.588 1.6412299e-38
0.029679999 -0.17975999 0.588 1.6595974e-38
0.030747619 -0.17945428 0.58700001 1.668817e-38
0.031811427 -0.17914857 0.58600003 1.668817e-38
0.032927621 -0.17914857 0.58600003 1.6872561e-38
0.034043811 -0.17914857 0.58600003 1.6872924e-38
0.035219997 -0.17945428 0.58700001 1.7241707e-38
0.036338098 -0.17945428 0.58700001 1.7241344e-38
0.037456192 -0.17945428 0.58700001 1.7333539e-38
0.038574286 -0.17945428 0.58700001 1.7333542e-38
0.039692383 -0.17945428 0.58700001 1.7333542e-38
0.040810477 -0.17945428 0.58700001 1.7425382e-38
0.041928571 -0.17945428 0.58700001 1.7517577e-38
0.043046668 -0.17945428 0.58700001 1.7517933e-38
0.044164762 -0.17945428 0.58700001 1.7610129e-38
0.045282859 -0.17945428 0.58700001 1.7610126e-38
0.046400953 -0.17945428 0.58700001 1.7794517e-38
0.047519047 -0.17945428 0.58700001 1.7610845e-38
0.048637144 -0.17945428 0.58700001 1.7610845e-38
0.04984 -0.17975999 0.588 1.7610845e-38
0.050960001 -0.17975999 0.588 1.7518649e-38
0.052079998 -0.17975999 0.588 1.7518647e-38
0.053199999 -0.17975999 0.588 1.7703038e-38
0.054412384 -0.18006572 0.58900005 1.7702685e-38
0.055534288 -0.18006572 0.58900005 1.7702685e-38
0.056656197 -0.18006572 0.58900005 1.7794883e-38
0.057778098 -0.18006572 0.58900005 1.7702688e-38
0.059000004 -0.18037143 0.59000003 1.7702678e-38
0.060123812 -0.18037143 0.59000003 1.7979265e-38
0.061247624 -0.18037143 0.59000003 1.7887443e-38
0.062371433 -0.18037143 0.59000003 1.7703052e-38
0.063495241 -0.18037143 0.59000003 1.7611211e-38
0.064619049 -0.18037143 0.59000003 1.7611211e-38
0.065854289 -0.18067716 0.59100002 1.7703406e-38
0.067206673 -0.18128859 0.59300005 1.7703406e-38
0.068336196 -0.18128859 0.59300005 1.7426465e-38
0.069465719 -0.18128859 0.59300005 1.7518661e-38
0.070714295 -0.1815943 0.59400004 1.7609777e-38
0.071845718 -0.1815943 0.59400004 1.7609777e-38
0.073100001 -0.18190001 0.59500003 1.7610129e-38
0.074358098 -0.18220572 0.59600002 1.7610129e-38
0.075620003 -0.18251142 0.597 1.7334269e-38
0.07701429 -0.18312286 0.59900004 1.7334269e-38
0.078155242 -0.18312286 0.59900004 1.7333902e-38
0.079428568 -0.18342857 0.60000002 1.7241707e-38
0.080705717 -0.18373428 0.60100001 1.7149511e-38
0.081850477 -0.18373428 0.60100001 1.6872924e-38
0.08313334 -0.18404001 0.60200006 1.678145e-38
0.084559999 -0.18465143 0.60400003 1.6597059e-38
0.086561903 -0.18648571 0.61000001 1.6504144e-38
0.087867618 -0.18679142 0.611 1.6135362e-38
0.089031428 -0.18679142 0.611 1.5675111e-38
0.090195239 -0.18679142 0.611 1.3923394e-38
-0.016071428 -0.20507142 0.67500001 1.9916086e-38
-0.014785714 -0.20507142 0.67500001 1.7888525e-38
-0.0135 -0.20507142 0.67500001 1.6505591e-38
-0.012196191 -0.20476763 0.67400002 1.6690659e-38
-0.010912381 -0.20476763 0.67400002 2.0747266e-38
-0.0096285716 -0.20476763 0.67400002 2.2773046e-38
-0.008357143 -0.20507142 0.67500001 2.2680851e-38
-0.0070714285 -0.20507142 0.67500001 2.2035494e-38
-0.0052714283 -0.18684286 0.61500001 1.9454016e-38
-0.0041 -0.18684286 0.61500001 1.5676906e-38
-0.0029238097 -0.18653905 0.61400002 1.2450059e-38
-0.0017514287 -0.18623525 0.61300004 1.3186181e-38
-0.00058285717 -0.18593144 0.61200005 1.4108137e-38
0.00058190478 -0.18562761 0.611 1.4199607e-38
0.0017400001 -0.18502001 0.60900003 1.4291802e-38
0.0028952383 -0.18471619 0.60800004 1.4659146e-38
0.00404 -0.18410857 0.60600001 1.4751341e-38
0.0051685721 -0.18319716 0.60300004 1.465879e-38
0.0062961904 -0.18258953 0.60100001 1.5027572e-38
0.0074285716 -0.18228573 0.60000002 1.5027926e-38
0.0085571436 -0.18198191 0.59900004 1.5120121e-38
0.0096980957 -0.18198191 0.59900004 1.4936453e-38
0.010802858 -0.1813743 0.597 1.5305235e-38
0.01194 -0.1813743 0.597 1.5581099e-38
0.013055238 -0.18107048 0.59600002 1.5396708e-38
0.014190476 -0.18107048 0.59600002 1.5303794e-38
0.0153 -0.18076667 0.59500003 1.5949163e-38
0.016433334 -0.18076667 0.59500003 1.5857683e-38
0.017537145 -0.18046287 0.59400004 1.5857683e-38
0.018637145 -0.18015906 0.59300005 1.5857689e-38
0.019733334 -0.17985524 0.59200001 1.6134276e-38
0.020860951 -0.17985524 0.59200001 1.6042431e-38
0.02195143 -0.17955144 0.59100002 1.6134626e-38
0.023077143 -0.17955144 0.59100002 1.6134276e-38
0.024161905 -0.17924762 0.59000003 1.6318667e-38
0.025285715 -0.17924762 0.59000003 1.6043163e-38
0.026364764 -0.17894383 0.58900005 1.631975e-38
0.027486669 -0.17894383 0.58900005 1.6411939e-38
0.028560001 -0.17864001 0.588 1.6504135e-38
0.029679999 -0.17864001 0.588 1.659633e-38
0.0308 -0.17864001 0.588 1.6688526e-38
0.031865712 -0.17833619 0.58700001 1.6595974e-38
0.03298381 -0.17833619 0.58700001 1.6872561e-38
0.034101903 -0.17833619 0.58700001 1.6780731e-38
0.035219997 -0.17833619 0.58700001 1.7149514e-38
0.036338098 -0.17833619 0.58700001 1.7333539e-38
0.037456192 -0.17833619 0.58700001 1.7333539e-38
0.038574286 -0.17833619 0.58700001 1.7333539e-38
0.039692383 -0.17833619 0.58700001 1.7333539e-38
0.040810477 -0.17833619 0.58700001 1.7333539e-38
0.041928571 -0.17833619 0.58700001 1.7610126e-38
0.043046668 -0.17833619 0.58700001 1.7702322e-38
0.044239998 -0.17864001 0.588 1.7610126e-38
0.045359999 -0.17864001 0.588 1.7702322e-38
0.04648 -0.17864001 0.588 1.7794517e-38
0.047599997 -0.17864001 0.588 1.7518649e-38
0.04880286 -0.17894383 0.58900005 1.7703041e-38
0.049924765 -0.17894383 0.58900005 1.7703041e-38
0.051046669 -0.17894383 0.58900005 1.7703041e-38
0.052079998 -0.17864001 0.588 1.7795236e-38
0.053199999 -0.17864001 0.588 1.7795236e-38
0.054412384 -0.17894383 0.58900005 1.7703404e-38
0.055534288 -0.17894383 0.58900005 1.7795599e-38
0.056752384 -0.17924762 0.59000003 1.7887076e-38
0.057876196 -0.17924762 0.59000003 1.7887076e-38
0.059000004 -0.17924762 0.59000003 1.7795234e-38
0.060123812 -0.17924762 0.59000003 1.7795234e-38
0.061247624 -0.17924762 0.59000003 1.7703406e-38
0.062477149 -0.17955144 0.59100002 1.7703406e-38
0.063602857 -0.17955144 0.59100002 1.7611211e-38
0.064728573 -0.17955144 0.59100002 1.7611211e-38
0.065965712 -0.17985524 0.59200001 1.7611219e-38
0.067206673 -0.18015906 0.59300005 1.7611219e-38
0.068336196 -0.18015906 0.59300005 1.7519015e-38
0.069582857 -0.18046287 0.59400004 1.7519015e-38
0.070714295 -0.18046287 0.59400004 1.7518663e-38
0.071845718 -0.18046287 0.59400004 1.7518663e-38
0.073100001 -0.18076667 0.59500003 1.742682e-38
0.074482858 -0.1813743 0.597 1.7334624e-38
0.075620003 -0.1813743 0.597 1.7334272e-38
0.077142857 -0.18228573 0.60000002 1.7334272e-38
0.078285716 -0.18228573 0.60000002 1.7333905e-38
0.07956095 -0.18258953 0.60100001 1.7333905e-38
0.080705717 -0.18258953 0.60100001 1.7149511e-38
0.081850477 -0.18258953 0.60100001 1.7057315e-38
0.08313334 -0.18289335 0.60200006 1.7057315e-38
0.085260004 -0.18502001 0.60900003 1.6688533e-38
0.086703807 -0.18562761 0.611 1.6596337e-38
0.087867618 -0.18562761 0.611 1.6135359e-38
0.089468569 -0.18653905 0.61400002 1.5675467e-38
0.090638101 -0.18653905 0.61400002 1.4845706e-38
-0.014785714 -0.20378572 0.67500001 1.9455484e-38
-0.0135 -0.20378572 0.67500001 1.6413028e-38
-0.012196191 -0.20348381 0.67400002 1.5309565e-38
-0.010880001 -0.20288001 0.67200005 1.7891043e-38
-0.0096000005 -0.20288001 0.67200005 2.0285222e-38
-0.008344762 -0.20348381 0.67400002 2.2313513e-38
-0.007060953 -0.20348381 0.67400002 2.2773765e-38
-0.0057771429 -0.20348381 0.67400002 1.9546918e-38
-0.0041200002 -0.18657714 0.61800003 1.5401401e-38
-0.0029285715 -0.18567143 0.61500001 1.1805771e-38
-0.0017542857 -0.18536952 0.61400002 1.2909961e-38
-0.00058380957 -0.18506762 0.61300004 1.4108504e-38
0.00058285717 -0.18476573 0.61200005 1.456695e-38
0.0017428572 -0.18416192 0.61000001 1.456695e-38
0.0029 -0.18386 0.60900003 1.4474755e-38
0.0040466674 -0.18325621 0.60700005 1.456695e-38
0.005177143 -0.18235049 0.60400003 1.465879e-38
0.0063066673 -0.18174668 0.60200006 1.5027572e-38
0.0074285716 -0.18114287 0.60000002 1.5027926e-38
0.0085714282 -0.18114287 0.60000002 1.5120121e-38
0.0096980957 -0.18084095 0.59900004 1.5212317e-38
0.010802858 -0.18023714 0.597 1.5581099e-38
0.01194 -0.18023714 0.597 1.5580736e-38
0.013055238 -0.17993525 0.59600002 1.5488541e-38
0.014190476 -0.17993525 0.59600002 1.5488906e-38
0.015325715 -0.17993525 0.59600002 1.5857689e-38
0.016433334 -0.17963333 0.59500003 1.5858039e-38
0.017537145 -0.17933145 0.59400004 1.5858039e-38
0.018637145 -0.17902954 0.59300005 1.5857686e-38
0.019766668 -0.17902954 0.59300005 1.6042077e-38
0.020860951 -0.17872761 0.59200001 1.6042075e-38
0.021988573 -0.17872761 0.59200001 1.613427e-38
0.02311619 -0.17872761 0.59200001 1.5950252e-38
0.024202857 -0.17842571 0.59100002 1.641123e-38
0.025328573 -0.17842571 0.59100002 1.6227908e-38
0.026409525 -0.17812382 0.59000003 1.6227908e-38
0.027486669 -0.17782192 0.58900005 1.6411583e-38
0.028560001 -0.17751999 0.588 1.6411583e-38
0.029679999 -0.17751999 0.588 1.6412302e-38
0.0308 -0.17751999 0.588 1.6596693e-38
0.031865712 -0.17721811 0.58700001 1.668817e-38
0.03298381 -0.17721811 0.58700001 1.6780366e-38
0.034101903 -0.17721811 0.58700001 1.6872917e-38
0.035219997 -0.17721811 0.58700001 1.7149504e-38
0.036338098 -0.17721811 0.58700001 1.7241344e-38
0.037456192 -0.17721811 0.58700001 1.7333539e-38
0.03864 -0.17751999 0.588 1.7333895e-38
0.039760001 -0.17751999 0.588 1.7794873e-38
0.040879998 -0.17751999 0.588 1.7610479e-38
0.041999999 -0.17751999 0.588 1.7702675e-38
0.043120001 -0.17751999 0.588 1.7610126e-38
0.044239998 -0.17751999 0.588 1.7517931e-38
0.045437146 -0.17782192 0.58900005 1.7610126e-38
0.046559051 -0.17782192 0.58900005 1.7702322e-38
0.047680955 -0.17782192 0.58900005 1.7702675e-38
0.04880286 -0.17782192 0.58900005 1.7887066e-38
0.049924765 -0.17782192 0.58900005 1.7703041e-38
0.051046669 -0.17782192 0.58900005 1.7703041e-38
0.052168574 -0.17782192 0.58900005 1.7887076e-38
0.053290483 -0.17782192 0.58900005 1.7887076e-38
0.054504763 -0.17812382 0.59000003 1.779488e-38
0.055628575 -0.17812382 0.59000003 1.7887076e-38
0.056752384 -0.17812382 0.59000003 1.7887798e-38
0.057876196 -0.17812382 0.59000003 1.7795602e-38
0.059000004 -0.17812382 0.59000003 1.7795236e-38
0.060123812 -0.17812382 0.59000003 1.7795236e-38
0.061247624 -0.17812382 0.59000003 1.779488e-38
0.062477149 -0.17842571 0.59100002 1.779488e-38
0.063602857 -0.17842571 0.59100002 1.7702688e-38
0.064728573 -0.17842571 0.59100002 1.7794883e-38
0.065965712 -0.17872761 0.59200001 1.779525e-38
0.067206673 -0.17902954 0.59300005 1.7703055e-38
0.068451434 -0.17933145 0.59400004 1.7519015e-38
0.069582857 -0.17933145 0.59400004 1.7519015e-38
0.070714295 -0.17933145 0.59400004 1.7518308e-38
0.071845718 -0.17933145 0.59400004 1.7518308e-38
0.073222861 -0.17993525 0.59600002 1.7518294e-38
0.074482858 -0.18023714 0.597 1.7426098e-38
0.075620003 -0.18023714 0.597 1.7426112e-38
0.076885715 -0.18053906 0.59800005 1.7333916e-38
0.078285716 -0.18114287 0.60000002 1.7333902e-38
0.07956095 -0.18144476 0.60100001 1.7241707e-38
0.080705717 -0.18144476 0.60100001 1.72417e-38
0.081850477 -0.18144476 0.60100001 1.7149504e-38
0.083271429 -0.18204859 0.60300004 1.687328e-38
0.084559999 -0.18235049 0.60400003 1.6596693e-38
0.086561903 -0.18416192 0.61000001 1.6596337e-38
0.087867618 -0.1844638 0.611 1.6043163e-38
0.089031428 -0.1844638 0.611 1.5398527e-38
-0.014785714 -0.2025 0.67500001 2.0193755e-38
-0.01348 -0.20220001 0.67400002 1.8257647e-38
-0.01216 -0.20160002 0.67200005 1.5585083e-38
-0.010880001 -0.20160002 0.67200005 1.5492888e-38
-0.0096000005 -0.20160002 0.67200005 1.9268534e-38
-0.008320001 -0.20160002 0.67200005 2.2771967e-38
-0.007060953 -0.20220001 0.67400002 2.3050705e-38
-0.0057771429 -0.20220001 0.67400002 2.1759967e-38
-0.0041200002 -0.18540001 0.61800003 1.5405374e-38
-0.0029285715 -0.18450001 0.61500001 1.0795592e-38
-0.0017542857 -0.1842 0.61400002 1.2816686e-38
-0.00058380957 -0.18390001 0.61300004 1.4107425e-38
0.00058285717 -0.18360001 0.61200005 1.4382559e-38
0.0017428572 -0.18300001 0.61000001 1.456695e-38
0.0029 -0.18270001 0.60900003 1.4383629e-38
0.0040533338 -0.18240002 0.60800004 1.4383629e-38
0.005177143 -0.18120001 0.60400003 1.4659146e-38
0.0063171433 -0.18090001 0.60300004 1.4935733e-38
0.0074409526 -0.1803 0.60100001 1.4843537e-38
0.0085714282 -0.17999999 0.60000002 1.521232e-38
0.0096980957 -0.17970002 0.59900004 1.5212314e-38
0.010802858 -0.17910001 0.597 1.5396705e-38
0.01194 -0.17910001 0.597 1.5396705e-38
0.013055238 -0.1788 0.59600002 1.5488901e-38
0.014190476 -0.1788 0.59600002 1.5488904e-38
0.015325715 -0.1788 0.59600002 1.5673295e-38
0.016433334 -0.1785 0.59500003 1.5488901e-38
0.017537145 -0.17820001 0.59400004 1.5581096e-38
0.018637145 -0.17790002 0.59300005 1.5581099e-38
0.019766668 -0.17790002 0.59300005 1.5949882e-38
0.020896193 -0.17790002 0.59300005 1.5949882e-38
0.021988573 -0.1776 0.59200001 1.6042077e-38
0.02311619 -0.1776 0.59200001 1.5858775e-38
0.024202857 -0.17730001 0.59100002 1.6319753e-38
0.025328573 -0.17730001 0.59100002 1.6411939e-38
0.026454287 -0.17730001 0.59100002 1.6411939e-38
0.027533336 -0.177 0.59000003 1.6135715e-38
0.028608572 -0.17670001 0.58900005 1.6320106e-38
0.029730478 -0.17670001 0.58900005 1.6412299e-38
0.0308 -0.17640001 0.588 1.659669e-38
0.031919997 -0.17640001 0.588 1.668817e-38
0.033040002 -0.17640001 0.588 1.6964757e-38
0.034159999 -0.17640001 0.588 1.6965113e-38
0.035279997 -0.17640001 0.588 1.7057308e-38
0.036400001 -0.17640001 0.588 1.7056952e-38
0.037519999 -0.17640001 0.588 1.7333539e-38
0.03864 -0.17640001 0.588 1.7426088e-38
0.039760001 -0.17640001 0.588 1.7610479e-38
0.040879998 -0.17640001 0.588 1.7426091e-38
0.041999999 -0.17640001 0.588 1.7610482e-38
0.043193337 -0.17670001 0.58900005 1.7609773e-38
0.044315241 -0.17670001 0.58900005 1.7701969e-38
0.045437146 -0.17670001 0.58900005 1.7610845e-38
0.046559051 -0.17670001 0.58900005 1.7795236e-38
0.047680955 -0.17670001 0.58900005 1.7703401e-38
0.04880286 -0.17670001 0.58900005 1.7703401e-38
0.049924765 -0.17670001 0.58900005 1.7703041e-38
0.051046669 -0.17670001 0.58900005 1.7703041e-38
0.052168574 -0.17670001 0.58900005 1.7701969e-38
0.053290483 -0.17670001 0.58900005 1.7794164e-38
0.054504763 -0.177 0.59000003 1.7610126e-38
0.055628575 -0.177 0.59000003 1.7886713e-38
0.056752384 -0.177 0.59000003 1.7887076e-38
0.057876196 -0.177 0.59000003 1.779488e-38
0.059000004 -0.177 0.59000003 1.7795234e-38
0.060123812 -0.177 0.59000003 1.7795234e-38
0.061247624 -0.177 0.59000003 1.7794883e-38
0.062477149 -0.17730001 0.59100002 1.7887079e-38
0.063602857 -0.17730001 0.59100002 1.7794883e-38
0.064838096 -0.1776 0.59200001 1.7702688e-38
0.065965712 -0.1776 0.59200001 1.7703406e-38
0.067206673 -0.17790002 0.59300005 1.7703406e-38
0.068451434 -0.17820001 0.59400004 1.7519015e-38
0.069700003 -0.1785 0.59500003 1.7519015e-38
0.070833333 -0.1785 0.59500003 1.7426465e-38
0.07196667 -0.1785 0.59500003 1.7426465e-38
0.073345713 -0.17910001 0.597 1.7334624e-38
0.074482858 -0.17910001 0.597 1.7334624e-38
0.07574667 -0.17940001 0.59800005 1.7426465e-38
0.076885715 -0.17940001 0.59800005 1.7334269e-38
0.078285716 -0.17999999 0.60000002 1.7057318e-38
0.07969334 -0.18060002 0.60200006 1.7057318e-38
0.080840006 -0.18060002 0.60200006 1.7057315e-38
0.081986673 -0.18060002 0.60200006 1.7057315e-38
0.083409525 -0.18120001 0.60400003 1.6504863e-38
0.084559999 -0.18120001 0.60400003 1.6504863e-38
0.086561903 -0.18300001 0.61000001 1.6780012e-38
0.087867618 -0.18329999 0.611 1.6042447e-38
0.089031428 -0.18329999 0.611 1.5214841e-38
-0.01348 -0.2009162 0.67400002 2.0285588e-38
-0.01216 -0.20032001 0.67200005 1.7980736e-38
-0.010880001 -0.20032001 0.67200005 1.5399258e-38
-0.0096000005 -0.20032001 0.67200005 1.595278e-38
-0.008320001 -0.20032001 0.67200005 2.1484482e-38
-0.007060953 -0.2009162 0.67400002 2.3234378e-38
-0.0057771429 -0.2009162 0.67400002 2.3234378e-38
-0.0041266666 -0.18452096 0.61900002 1.991535e-38
-0.0029428573 -0.18422286 0.61800003 1.2263113e-38
-0.0017571428 -0.18332858 0.61500001 1.2447548e-38
-0.0005847619 -0.18303049 0.61400002 1.4199265e-38
0.00058285717 -0.18243429 0.61200005 1.4566597e-38
0.0017428572 -0.1818381 0.61000001 1.5027575e-38
0.0029 -0.18154 0.60900003 1.4566938e-38
0.0040533338 -0.18124191 0.60800004 1.4659133e-38
0.0051942859 -0.18064572 0.60600001 1.4751339e-38
0.0063171433 -0.17975144 0.60300004 1.5027926e-38
0.0074533341 -0.17945336 0.60200006 1.4935733e-38
0.0085857147 -0.17915525 0.60100001 1.5304515e-38
0.0097142868 -0.17885715 0.60000002 1.5212314e-38
0.010839048 -0.17855906 0.59900004 1.5212314e-38
0.01194 -0.17796287 0.597 1.5304512e-38
0.013077143 -0.17796287 0.597 1.5673295e-38
0.014190476 -0.17766476 0.59600002 1.5488904e-38
0.015325715 -0.17766476 0.59600002 1.5673295e-38
0.016433334 -0.17736667 0.59500003 1.5765841e-38
0.017537145 -0.17706858 0.59400004 1.5858036e-38
0.018637145 -0.17677049 0.59300005 1.5581822e-38
0.019766668 -0.17677049 0.59300005 1.6042801e-38
0.020896193 -0.17677049 0.59300005 1.5858765e-38
0.021988573 -0.17647238 0.59200001 1.6043156e-38
0.02311619 -0.17647238 0.59200001 1.5950968e-38
0.024202857 -0.17617428 0.59100002 1.6227555e-38
0.025328573 -0.17617428 0.59100002 1.6320459e-38
0.026454287 -0.17617428 0.59100002 1.6412655e-38
0.027533336 -0.1758762 0.59000003 1.6320103e-38
0.028608572 -0.1755781 0.58900005 1.6504495e-38
0.029730478 -0.1755781 0.58900005 1.6595974e-38
0.030852385 -0.1755781 0.58900005 1.668817e-38
0.031974286 -0.1755781 0.58900005 1.668817e-38
0.033096194 -0.1755781 0.58900005 1.6964757e-38
0.034218099 -0.1755781 0.58900005 1.696511e-38
0.03534 -0.1755781 0.58900005 1.696511e-38
0.036461908 -0.1755781 0.58900005 1.7056955e-38
0.037583809 -0.1755781 0.58900005 1.7425738e-38
0.03864 -0.17528 0.588 1.7426091e-38
0.039760001 -0.17528 0.588 1.7518287e-38
0.040879998 -0.17528 0.588 1.7517931e-38
0.041999999 -0.17528 0.588 1.7517931e-38
0.043193337 -0.1755781 0.58900005 1.7702688e-38
0.044315241 -0.1755781 0.58900005 1.7702688e-38
0.045437146 -0.1755781 0.58900005 1.7702322e-38
0.046559051 -0.1755781 0.58900005 1.7702322e-38
0.047761906 -0.1758762 0.59000003 1.7702688e-38
0.048885714 -0.1758762 0.59000003 1.7702688e-38
0.049924765 -0.1755781 0.58900005 1.779452e-38
0.051046669 -0.1755781 0.58900005 1.779452e-38
0.052168574 -0.1755781 0.58900005 1.779452e-38
0.053290483 -0.1755781 0.58900005 1.7702325e-38
0.054504763 -0.1758762 0.59000003 1.7610126e-38
0.055628575 -0.1758762 0.59000003 1.7794517e-38
0.056752384 -0.1758762 0.59000003 1.7886713e-38
0.057876196 -0.1758762 0.59000003 1.7886713e-38
0.059000004 -0.1758762 0.59000003 1.7794873e-38
0.060225718 -0.17617428 0.59100002 1.7794873e-38
0.061351426 -0.17617428 0.59100002 1.7794883e-38
0.062582858 -0.17647238 0.59200001 1.7702688e-38
0.063710481 -0.17647238 0.59200001 1.7702688e-38
0.064947627 -0.17677049 0.59300005 1.7610492e-38
0.066077143 -0.17677049 0.59300005 1.7611205e-38
0.067320004 -0.17706858 0.59400004 1.7611205e-38
0.068451434 -0.17706858 0.59400004 1.7610845e-38
0.069700003 -0.17736667 0.59500003 1.7518649e-38
0.070833333 -0.17736667 0.59500003 1.7426101e-38
0.072087623 -0.17766476 0.59600002 1.7426101e-38
0.073345713 -0.17796287 0.597 1.7426098e-38
0.074607626 -0.17826097 0.59800005 1.7333902e-38
0.07574667 -0.17826097 0.59800005 1.7426098e-38
0.076885715 -0.17826097 0.59800005 1.7518294e-38
0.078285716 -0.17885715 0.60000002 1.7149511e-38
0.07969334 -0.17945336 0.60200006 1.7057315e-38
0.080840006 -0.17945336 0.60200006 1.7057315e-38
0.081986673 -0.17945336 0.60200006 1.7149511e-38
0.083685718 -0.18064572 0.60600001 1.6596704e-38
0.08484 -0.18064572 0.60600001 1.6504509e-38
0.086561903 -0.1818381 0.61000001 1.6596344e-38
0.087867618 -0.18213618 0.611 1.5674388e-38
0.089031428 -0.18213618 0.611 1.5030809e-38
0.090638101 -0.18303049 0.61400002 1.5952766e-38
-0.01216 -0.19904001 0.67200005 1.9364007e-38
-0.010880001 -0.19904001 0.67200005 1.6321551e-38
-0.0096000005 -0.19904001 0.67200005 1.4940396e-38
-0.008320001 -0.19904001 0.67200005 1.9826765e-38
-0.0070400005 -0.19904001 0.67200005 2.2865242e-38
-0.0057600001 -0.19904001 0.67200005 2.323402e-38
-0.0041266666 -0.18334191 0.61900002 2.083625e-38
-0.0029428573 -0.18304573 0.61800003 1.2446448e-38
-0.0017600001 -0.18245335 0.61600006 1.226351e-38
-0.0005847619 -0.18186095 0.61400002 1.4107422e-38
0.00058380957 -0.18156476 0.61300004 1.4474399e-38
0.0017428572 -0.18067619 0.61000001 1.4566594e-38
0.0029 -0.18038 0.60900003 1.4566582e-38
0.0040533338 -0.18008383 0.60800004 1.4750973e-38
0.0051942859 -0.17949143 0.60600001 1.4751339e-38
0.0063276193 -0.17889905 0.60400003 1.493573e-38
0.0074533341 -0.17830668 0.60200006 1.4660582e-38
0.0086000003 -0.17830668 0.60200006 1.4937169e-38
0.0097142868 -0.17771429 0.60000002 1.5212314e-38
0.010857143 -0.17771429 0.60000002 1.530451e-38
0.01198 -0.17741811 0.59900004 1.5304512e-38
0.013077143 -0.17682572 0.597 1.5581099e-38
0.014190476 -0.17652953 0.59600002 1.5488901e-38
0.015325715 -0.17652953 0.59600002 1.5581096e-38
0.016433334 -0.17623335 0.59500003 1.5857683e-38
0.017537145 -0.17593715 0.59400004 1.5857683e-38
0.018637145 -0.17564097 0.59300005 1.5581822e-38
0.019766668 -0.17564097 0.59300005 1.5858409e-38
0.020896193 -0.17564097 0.59300005 1.5674018e-38
0.022025717 -0.17564097 0.59300005 1.6042801e-38
0.02311619 -0.17534477 0.59200001 1.5951324e-38
0.024243811 -0.17534477 0.59200001 1.6227911e-38
0.025328573 -0.17504857 0.59100002 1.6227908e-38
0.026454287 -0.17504857 0.59100002 1.6412299e-38
0.02758 -0.17504857 0.59100002 1.6411936e-38
0.028705714 -0.17504857 0.59100002 1.6596327e-38
0.029780954 -0.17475238 0.59000003 1.6504495e-38
0.030904762 -0.17475238 0.59000003 1.659669e-38
0.031974286 -0.17445621 0.58900005 1.6688526e-38
0.033096194 -0.17445621 0.58900005 1.6872917e-38
0.034218099 -0.17445621 0.58900005 1.6965113e-38
0.03534 -0.17445621 0.58900005 1.7149504e-38
0.036461908 -0.17445621 0.58900005 1.7149504e-38
0.037583809 -0.17445621 0.58900005 1.7333895e-38
0.038705718 -0.17445621 0.58900005 1.7333895e-38
0.039827622 -0.17445621 0.58900005 1.7518287e-38
0.040949523 -0.17445621 0.58900005 1.7426098e-38
0.042071432 -0.17445621 0.58900005 1.7518294e-38
0.043266669 -0.17475238 0.59000003 1.7519015e-38
0.044390481 -0.17475238 0.59000003 1.7519015e-38
0.045514286 -0.17475238 0.59000003 1.7610126e-38
0.046638098 -0.17475238 0.59000003 1.7794517e-38
0.047761906 -0.17475238 0.59000003 1.779452e-38
0.048885714 -0.17475238 0.59000003 1.779452e-38
0.050009526 -0.17475238 0.59000003 1.7794517e-38
0.051133335 -0.17475238 0.59000003 1.7794517e-38
0.052257147 -0.17475238 0.59000003 1.7794517e-38
0.053380955 -0.17475238 0.59000003 1.7794517e-38
0.054597147 -0.17504857 0.59100002 1.7794517e-38
0.055722859 -0.17504857 0.59100002 1.7886713e-38
0.056848574 -0.17504857 0.59100002 1.7886713e-38
0.057974286 -0.17504857 0.59100002 1.7794517e-38
0.059099998 -0.17504857 0.59100002 1.7702322e-38
0.060225718 -0.17504857 0.59100002 1.7794517e-38
0.061455239 -0.17534477 0.59200001 1.7794883e-38
0.062582858 -0.17534477 0.59200001 1.7702688e-38
0.063710481 -0.17534477 0.59200001 1.7702685e-38
0.064947627 -0.17564097 0.59300005 1.7610489e-38
0.066077143 -0.17564097 0.59300005 1.751901e-38
0.067320004 -0.17593715 0.59400004 1.751901e-38
0.068451434 -0.17593715 0.59400004 1.7610489e-38
0.069700003 -0.17623335 0.59500003 1.7518294e-38
0.070833333 -0.17623335 0.59500003 1.7426817e-38
0.072087623 -0.17652953 0.59600002 1.7426817e-38
0.073468573 -0.17712191 0.59800005 1.7334621e-38
0.074607626 -0.17712191 0.59800005 1.7334621e-38
0.07574667 -0.17712191 0.59800005 1.7426454e-38
0.07701429 -0.17741811 0.59900004 1.7426454e-38
0.078285716 -0.17771429 0.60000002 1.7149511e-38
0.07969334 -0.17830668 0.60200006 1.7057315e-38
0.080840006 -0.17830668 0.60200006 1.7149511e-38
0.082122862 -0.17860287 0.60300004 1.696512e-38
0.084100001 -0.18038 0.60900003 1.6504509e-38
0.085260004 -0.18038 0.60900003 1.6504509e-38
0.086703807 -0.18097238 0.611 1.6595974e-38
0.087867618 -0.18097238 0.611 1.5489627e-38
0.089322865 -0.18156476 0.61300004 1.475386e-38
0.090638101 -0.18186095 0.61400002 1.6413381e-38
-0.01216 -0.19776 0.67200005 2.0193755e-38
-0.010880001 -0.19776 0.67200005 1.8349842e-38
-0.0096000005 -0.19776 0.67200005 1.6691397e-38
-0.008320001 -0.19776 0.67200005 1.6507006e-38
-0.0070400005 -0.19776 0.67200005 1.9915338e-38
-0.0057600001 -0.19776 0.67200005 2.2035837e-38
-0.0041333335 -0.18245715 0.62 2.037419e-38
-0.002947619 -0.18216287 0.61900002 1.299854e-38
-0.0017657144 -0.18186857 0.61800003 1.226351e-38
-0.0005857143 -0.18098572 0.61500001 1.4015227e-38
0.0005847619 -0.18069144 0.61400002 1.4382556e-38
0.0017485716 -0.18010287 0.61200005 1.4382556e-38
0.002904762 -0.17951429 0.61000001 1.4566228e-38
0.0040533338 -0.17892572 0.60800004 1.475062e-38
0.0051942859 -0.17833714 0.60600001 1.475062e-38
0.0063276193 -0.17774859 0.60400003 1.4935011e-38
0.0074657151 -0.17745429 0.60300004 1.4935733e-38
0.0086000003 -0.17716002 0.60200006 1.5120124e-38
0.009730476 -0.17686571 0.60100001 1.5120118e-38
0.010857143 -0.17657143 0.60000002 1.530451e-38
0.012 -0.17657143 0.60000002 1.5211964e-38
0.013099049 -0.17598286 0.59800005 1.5580746e-38
0.014214286 -0.17568858 0.597 1.5488551e-38
0.015351428 -0.17568858 0.597 1.5488551e-38
0.016460953 -0.17539428 0.59600002 1.585732e-38
0.017566668 -0.17510001 0.59500003 1.6318299e-38
0.018637145 -0.17451145 0.59300005 1.5857683e-38
0.019766668 -0.17451145 0.59300005 1.5949879e-38
0.020896193 -0.17451145 0.59300005 1.5674018e-38
0.022025717 -0.17451145 0.59300005 1.6042801e-38
0.023155238 -0.17451145 0.59300005 1.6043156e-38
0.024284763 -0.17451145 0.59300005 1.6135352e-38
0.025371429 -0.17421715 0.59200001 1.6227545e-38
0.026499048 -0.17421715 0.59200001 1.6411936e-38
0.027626665 -0.17421715 0.59200001 1.6411939e-38
0.028754286 -0.17421715 0.59200001 1.6411939e-38
0.02983143 -0.17392285 0.59100002 1.6411583e-38
0.030957144 -0.17392285 0.59100002 1.668817e-38
0.032028571 -0.17362858 0.59000003 1.668817e-38
0.033152383 -0.17362858 0.59000003 1.668817e-38
0.034276191 -0.17362858 0.59000003 1.6780012e-38
0.03534 -0.17333429 0.58900005 1.7240991e-38
0.036461908 -0.17333429 0.58900005 1.72417e-38
0.03764762 -0.17362858 0.59000003 1.72417e-38
0.038771432 -0.17362858 0.59000003 1.7333895e-38
0.039827622 -0.17333429 0.58900005 1.7333895e-38
0.040949523 -0.17333429 0.58900005 1.7425738e-38
0.042071432 -0.17333429 0.58900005 1.7425738e-38
0.043266669 -0.17362858 0.59000003 1.7517933e-38
0.044390481 -0.17362858 0.59000003 1.7610129e-38
0.045514286 -0.17362858 0.59000003 1.7610126e-38
0.046638098 -0.17362858 0.59000003 1.8071104e-38
0.047761906 -0.17362858 0.59000003 1.7702322e-38
0.048885714 -0.17362858 0.59000003 1.7610126e-38
0.050009526 -0.17362858 0.59000003 1.7702322e-38
0.051133335 -0.17362858 0.59000003 1.7794517e-38
0.052257147 -0.17362858 0.59000003 1.7702325e-38
0.053380955 -0.17362858 0.59000003 1.7702325e-38
0.054597147 -0.17392285 0.59100002 1.7702325e-38
0.055722859 -0.17392285 0.59100002 1.779452e-38
0.056848574 -0.17392285 0.59100002 1.779452e-38
0.058072381 -0.17421715 0.59200001 1.779452e-38
0.0592 -0.17421715 0.59200001 1.7702685e-38
0.060327619 -0.17421715 0.59200001 1.7702685e-38
0.061559055 -0.17451145 0.59300005 1.7702688e-38
0.062688574 -0.17451145 0.59300005 1.7702688e-38
0.063818097 -0.17451145 0.59300005 1.7703041e-38
0.064947627 -0.17451145 0.59300005 1.7610845e-38
0.066077143 -0.17451145 0.59300005 1.7702678e-38
0.067320004 -0.17480572 0.59400004 1.7610482e-38
0.068451434 -0.17480572 0.59400004 1.7610129e-38
0.069700003 -0.17510001 0.59500003 1.7517933e-38
0.070952378 -0.17539428 0.59600002 1.7517931e-38
0.072208568 -0.17568858 0.597 1.7610126e-38
0.073468573 -0.17598286 0.59800005 1.7426454e-38
0.074607626 -0.17598286 0.59800005 1.7334258e-38
0.075873338 -0.17627716 0.59900004 1.7333539e-38
0.07701429 -0.17627716 0.59900004 1.7241344e-38
0.078416191 -0.17686571 0.60100001 1.7241346e-38
0.07969334 -0.17716002 0.60200006 1.7149151e-38
0.080840006 -0.17716002 0.60200006 1.696476e-38
0.082122862 -0.17745429 0.60300004 1.6688173e-38
0.083409525 -0.17774859 0.60400003 1.6596344e-38
0.085260004 -0.17922001 0.60900003 1.6596344e-38
0.086703807 -0.17980857 0.611 1.6503779e-38
0.087867618 -0.17980857 0.611 1.5305235e-38
0.089322865 -0.18039715 0.61300004 1.4386173e-38
0.090638101 -0.18069144 0.61400002 1.696765e-38
-0.0096000005 -0.19648001 0.67200005 1.7521547e-38
-0.008320001 -0.19648001 0.67200005 1.6046417e-38
-0.0070400005 -0.19648001 0.67200005 1.7333517e-38
-0.0041333335 -0.18127619 0.62 1.9360394e-38
-0.002947619 -0.18098381 0.61900002 1.3367678e-38
-0.0017657144 -0.18069144 0.61800003 1.2631565e-38
-0.0005857143 -0.17981429 0.61500001 1.4198891e-38
0.0005847619 -0.1795219 0.61400002 1.4382556e-38
0.0017485716 -0.17893715 0.61200005 1.4474752e-38
0.002904762 -0.17835239 0.61000001 1.4658777e-38
0.0040533338 -0.17776762 0.60800004 1.4843169e-38
0.0052028573 -0.17747524 0.60700005 1.4751692e-38
0.0063276193 -0.1765981 0.60400003 1.4843887e-38
0.0074657151 -0.17630573 0.60300004 1.493573e-38
0.0086000003 -0.17601334 0.60200006 1.5120121e-38
0.009730476 -0.17572096 0.60100001 1.5027926e-38
0.010857143 -0.17542858 0.60000002 1.5212317e-38
0.012 -0.17542858 0.60000002 1.5303794e-38
0.013120953 -0.17513619 0.59900004 1.5395989e-38
0.014214286 -0.17455143 0.597 1.5580383e-38
0.015351428 -0.17455143 0.597 1.5672579e-38
0.016460953 -0.17425905 0.59600002 1.5672576e-38
0.017566668 -0.17396668 0.59500003 1.5856967e-38
0.0187 -0.17396668 0.59500003 1.5673298e-38
0.019833334 -0.17396668 0.59500003 1.604208e-38
0.020966668 -0.17396668 0.59500003 1.613427e-38
0.022062859 -0.1736743 0.59400004 1.613427e-38
0.023194287 -0.1736743 0.59400004 1.6043154e-38
0.024284763 -0.17338191 0.59300005 1.6135349e-38
0.025414288 -0.17338191 0.59300005 1.6135352e-38
0.026543811 -0.17338191 0.59300005 1.6319743e-38
0.027626665 -0.17308952 0.59200001 1.6319741e-38
0.028754286 -0.17308952 0.59200001 1.6411936e-38
0.029881904 -0.17308952 0.59200001 1.6319743e-38
0.031009525 -0.17308952 0.59200001 1.6688526e-38
0.032082856 -0.17279716 0.59100002 1.6780721e-38
0.033208571 -0.17279716 0.59100002 1.6780721e-38
0.034334287 -0.17279716 0.59100002 1.6872917e-38
0.03534 -0.17221239 0.58900005 1.7149504e-38
0.036461908 -0.17221239 0.58900005 1.7149504e-38
0.037711427 -0.17279716 0.59100002 1.72417e-38
0.038771432 -0.17250477 0.59000003 1.7425009e-38
0.03989524 -0.17250477 0.59000003 1.76094e-38
0.041019052 -0.17250477 0.59000003 1.7425738e-38
0.042142861 -0.17250477 0.59000003 1.7333542e-38
0.043340001 -0.17279716 0.59100002 1.7333542e-38
0.044390481 -0.17250477 0.59000003 1.7610129e-38
0.045514286 -0.17250477 0.59000003 1.7518287e-38
0.046638098 -0.17250477 0.59000003 1.7702678e-38
0.047761906 -0.17250477 0.59000003 1.7702322e-38
0.048968576 -0.17279716 0.59100002 1.7702322e-38
0.050094288 -0.17279716 0.59100002 1.7610845e-38
0.05122 -0.17279716 0.59100002 1.7518649e-38
0.052345715 -0.17279716 0.59100002 1.7610489e-38
0.053471427 -0.17279716 0.59100002 1.7610489e-38
0.054689523 -0.17308952 0.59200001 1.7702322e-38
0.055817142 -0.17308952 0.59200001 1.7794517e-38
0.056944761 -0.17308952 0.59200001 1.7702685e-38
0.058170483 -0.17338191 0.59300005 1.7610489e-38
0.059300005 -0.17338191 0.59300005 1.7702685e-38
0.060429528 -0.17338191 0.59300005 1.7610489e-38
0.061559055 -0.17338191 0.59300005 1.7702325e-38
0.062688574 -0.17338191 0.59300005 1.7702325e-38
0.063818097 -0.17338191 0.59300005 1.7702322e-38
0.065057144 -0.1736743 0.59400004 1.7610126e-38
0.066188574 -0.1736743 0.59400004 1.7610126e-38
0.067320004 -0.1736743 0.59400004 1.7702322e-38
0.068566665 -0.17396668 0.59500003 1.7517933e-38
0.069817141 -0.17425905 0.59600002 1.7517933e-38
0.070952378 -0.17425905 0.59600002 1.7425735e-38
0.072208568 -0.17455143 0.597 1.7425735e-38
0.073468573 -0.17484382 0.59800005 1.7334258e-38
0.074732378 -0.17513619 0.59900004 1.7334258e-38
0.075873338 -0.17513619 0.59900004 1.7149511e-38
0.077142857 -0.17542858 0.60000002 1.7057315e-38
0.078416191 -0.17572096 0.60100001 1.7149151e-38
0.07969334 -0.17601334 0.60200006 1.7056955e-38
0.080974288 -0.17630573 0.60300004 1.6780731e-38
0.082259052 -0.1765981 0.60400003 1.6688536e-38
0.083409525 -0.1765981 0.60400003 1.6687817e-38
0.085400008 -0.17835239 0.61000001 1.6503426e-38
0.086703807 -0.17864476 0.611 1.6411583e-38
0.08815524 -0.17922953 0.61300004 1.521304e-38
0.089322865 -0.17922953 0.61300004 1.4386156e-38
0.090638101 -0.1795219 0.61400002 1.788959e-38
-0.0041333335 -0.18009524 0.62 1.8530984e-38
-0.002947619 -0.17980476 0.61900002 1.3644616e-38
-0.0017657144 -0.17951429 0.61800003 1.2724488e-38
-0.00058666669 -0.17893335 0.61600006 1.4107422e-38
0.0005857143 -0.17864285 0.61500001 1.4382909e-38
0.0017514287 -0.17806192 0.61300004 1.4382909e-38
0.002904762 -0.17719048 0.61000001 1.45673e-38
0.0040533338 -0.17660955 0.60800004 1.4751692e-38
0.0052028573 -0.17631905 0.60700005 1.4750973e-38
0.0063276193 -0.17544763 0.60400003 1.4843169e-38
0.0074657151 -0.17515714 0.60300004 1.4843537e-38
0.0086000003 -0.17486668 0.60200006 1.5027928e-38
0.009730476 -0.17457619 0.60100001 1.5027928e-38
0.010875239 -0.17457619 0.60100001 1.5120124e-38
0.012 -0.17428571 0.60000002 1.5027575e-38
0.013142857 -0.17428571 0.60000002 1.5211966e-38
0.014261906 -0.17399524 0.59900004 1.5396711e-38
0.015377144 -0.17370477 0.59800005 1.5673298e-38
0.016488571 -0.17341429 0.597 1.5672579e-38
0.017625714 -0.17341429 0.597 1.5672579e-38
0.0187 -0.17283334 0.59500003 1.5672942e-38
0.019833334 -0.17283334 0.59500003 1.613392e-38
0.020966668 -0.17283334 0.59500003 1.6042075e-38
0.022100002 -0.17283334 0.59500003 1.613427e-38
0.023194287 -0.17254287 0.59400004 1.5950961e-38
0.024325715 -0.17254287 0.59400004 1.6043156e-38
0.025457144 -0.17254287 0.59400004 1.6134996e-38
0.026543811 -0.1722524 0.59300005 1.6134996e-38
0.027673336 -0.1722524 0.59300005 1.6319743e-38
0.028802859 -0.1722524 0.59300005 1.6688526e-38
0.029881904 -0.1719619 0.59200001 1.6504132e-38
0.031009525 -0.1719619 0.59200001 1.6688523e-38
0.032137141 -0.1719619 0.59200001 1.6780721e-38
0.033264764 -0.1719619 0.59200001 1.6780721e-38
0.034334287 -0.17167144 0.59100002 1.6780366e-38
0.035460003 -0.17167144 0.59100002 1.6964757e-38
0.036585715 -0.17167144 0.59100002 1.696476e-38
0.037711427 -0.17167144 0.59100002 1.7241346e-38
0.038837146 -0.17167144 0.59100002 1.7333895e-38
0.03989524 -0.17138097 0.59000003 1.7333895e-38
0.041019052 -0.17138097 0.59000003 1.7425738e-38
