# .PCD v0.7 - Point Cloud Data file format
VERSION 0.7
FIELDS x y z rgb
SIZE 4 4 4 4
TYPE F F F F
COUNT 1 1 1 1
WIDTH 996
HEIGHT 1
VIEWPOINT 0 0 0 1 0 0 0
POINTS 996
DATA ascii
0.068762861 -0.18839905 0.58700001 1.7610503e-38
0.07 -0.18872 0.588 1.7518661e-38
0.071240962 -0.18904096 0.58900005 1.7426465e-38
0.072362863 -0.18904096 0.58900005 1.7518663e-38
0.073734291 -0.18968286 0.59100002 1.7518663e-38
0.074860007 -0.18968286 0.59100002 1.7334269e-38
0.076114282 -0.19000381 0.59200001 1.7334269e-38
0.077372387 -0.19032478 0.59300005 1.7242074e-38
0.078634292 -0.19064572 0.59400004 1.7242074e-38
0.080034286 -0.19128762 0.59600002 1.715023e-38
0.081305712 -0.19160856 0.597 1.715023e-38
0.082442857 -0.19160856 0.597 1.7058034e-38
0.083720006 -0.19192953 0.59800005 1.6781447e-38
0.085000955 -0.19225048 0.59900004 1.6597775e-38
0.086285718 -0.19257143 0.60000002 1.6505579e-38
0.087574288 -0.19289239 0.60100001 1.6044249e-38
0.088866673 -0.19321336 0.60200006 1.4845706e-38
0.090162858 -0.1935343 0.60300004 1.3833366e-38
-0.0087857144 -0.19621429 0.61500001 1.9916452e-38
-0.0076142857 -0.19621429 0.61500001 2.0100843e-38
-0.0064428574 -0.19621429 0.61500001 1.8901937e-38
-0.0052628573 -0.19589524 0.61400002 1.3462395e-38
-0.0040600002 -0.19430001 0.60900003 1.2724837e-38
-0.0028857142 -0.19334285 0.60600001 1.4015576e-38
-0.0017257143 -0.19270477 0.60400003 1.4474752e-38
-0.00057333341 -0.19206668 0.60200006 1.4474752e-38
0.00057333341 -0.19206668 0.60200006 1.456695e-38
0.0017171428 -0.19174762 0.60100001 1.4843537e-38
0.0028619049 -0.19174762 0.60100001 1.4751339e-38
0.0040000002 -0.19142859 0.60000002 1.493573e-38
0.005117143 -0.19047143 0.597 1.4752781e-38
0.0062333331 -0.18983334 0.59500003 1.4844976e-38
0.007354286 -0.18951431 0.59400004 1.4844976e-38
0.0084857149 -0.18951431 0.59400004 1.5029367e-38
0.0096009532 -0.18919525 0.59300005 1.51212e-38
0.010712381 -0.1888762 0.59200001 1.5213396e-38
0.01184 -0.1888762 0.59200001 1.5305598e-38
0.012945714 -0.18855715 0.59100002 1.5582185e-38
0.01404762 -0.1882381 0.59000003 1.5582185e-38
0.015145715 -0.18791907 0.58900005 1.548999e-38
0.01626762 -0.18791907 0.58900005 1.5489992e-38
0.01736 -0.18759999 0.588 1.5858775e-38
0.018479999 -0.18759999 0.588 1.5675097e-38
0.019533332 -0.18696192 0.58600003 1.5951684e-38
0.020649524 -0.18696192 0.58600003 1.6043872e-38
0.021728573 -0.18664286 0.58500004 1.6043872e-38
0.022842858 -0.18664286 0.58500004 1.6134996e-38
0.023957144 -0.18664286 0.58500004 1.6319387e-38
0.025028573 -0.18632382 0.58400005 1.6412302e-38
0.026140954 -0.18632382 0.58400005 1.6504498e-38
0.027253335 -0.18632382 0.58400005 1.6504142e-38
0.028365716 -0.18632382 0.58400005 1.6504142e-38
0.029478097 -0.18632382 0.58400005 1.6504144e-38
0.030538093 -0.18600477 0.583 1.6504144e-38
0.031648569 -0.18600477 0.583 1.631939e-38
0.032702859 -0.18568571 0.58200002 1.696476e-38
0.033811431 -0.18568571 0.58200002 1.7056952e-38
0.03486 -0.18536668 0.58100003 1.7056952e-38
0.035966668 -0.18536668 0.58100003 1.7149151e-38
0.037073337 -0.18536668 0.58100003 1.7149151e-38
0.038180001 -0.18536668 0.58100003 1.7056955e-38
0.039286669 -0.18536668 0.58100003 1.7517933e-38
0.040393334 -0.18536668 0.58100003 1.742682e-38
0.041571431 -0.18568571 0.58200002 1.742682e-38
0.042680003 -0.18568571 0.58200002 1.7426814e-38
0.043713335 -0.18536668 0.58100003 1.751901e-38
0.044819999 -0.18536668 0.58100003 1.7518649e-38
0.046005715 -0.18568571 0.58200002 1.7610845e-38
0.047114287 -0.18568571 0.58200002 1.7702685e-38
0.048222858 -0.18568571 0.58200002 1.779488e-38
0.049331427 -0.18568571 0.58200002 1.7794883e-38
0.050440002 -0.18568571 0.58200002 1.7794883e-38
0.051548574 -0.18568571 0.58200002 1.7702692e-38
0.052657142 -0.18568571 0.58200002 1.7702692e-38
0.053950481 -0.18632382 0.58400005 1.7794887e-38
0.05506286 -0.18632382 0.58400005 1.7979279e-38
0.056175243 -0.18632382 0.58400005 1.7703406e-38
0.057287622 -0.18632382 0.58400005 1.7703406e-38
0.058400001 -0.18632382 0.58400005 1.7703771e-38
0.05961429 -0.18664286 0.58500004 1.751938e-38
0.060728572 -0.18664286 0.58500004 1.7611927e-38
0.061842863 -0.18664286 0.58500004 1.7704123e-38
0.063064761 -0.18696192 0.58600003 1.7703406e-38
0.064180948 -0.18696192 0.58600003 1.7703406e-38
0.065297149 -0.18696192 0.58600003 1.751901e-38
0.066526674 -0.18728095 0.58700001 1.7611205e-38
0.06764476 -0.18728095 0.58700001 1.7518661e-38
0.068879999 -0.18759999 0.588 1.7518661e-38
0.070119053 -0.18791907 0.58900005 1.7610492e-38
0.071240962 -0.18791907 0.58900005 1.7610492e-38
0.072485715 -0.1882381 0.59000003 1.7518661e-38
0.073859051 -0.1888762 0.59200001 1.7518661e-38
0.074986666 -0.1888762 0.59200001 1.7518294e-38
0.076242864 -0.18919525 0.59300005 1.7426098e-38
0.077502862 -0.18951431 0.59400004 1.7333905e-38
0.078634292 -0.18951431 0.59400004 1.7333905e-38
0.080034286 -0.19015238 0.59600002 1.7150233e-38
0.081305712 -0.19047143 0.597 1.7150233e-38
0.082580961 -0.19079049 0.59800005 1.6781459e-38
0.083720006 -0.19079049 0.59800005 1.6689263e-38
0.085000955 -0.19110952 0.59900004 1.6505223e-38
0.086429521 -0.19174762 0.60100001 1.6597419e-38
0.087720007 -0.19206668 0.60200006 1.6596693e-38
0.089900002 -0.19430001 0.60900003 1.4752781e-38
0.091209523 -0.19461904 0.61000001 1.3740801e-38
-0.0087857144 -0.19504285 0.61500001 2.010048e-38
-0.0076142857 -0.19504285 0.61500001 2.0284871e-38
-0.0064428574 -0.19504285 0.61500001 1.8810104e-38
-0.0052628573 -0.19472572 0.61400002 1.3554953e-38
-0.0040533338 -0.19282287 0.60800004 1.2633007e-38
-0.0028857142 -0.19218858 0.60600001 1.3923746e-38
-0.0017257143 -0.19155429 0.60400003 1.4475105e-38
-0.00057428575 -0.19123715 0.60300004 1.4475105e-38
0.00057333341 -0.19092001 0.60200006 1.4382559e-38
0.0017200002 -0.19092001 0.60200006 1.456695e-38
0.0028619049 -0.19060287 0.60100001 1.4659146e-38
0.0040000002 -0.19028571 0.60000002 1.4843537e-38
0.005117143 -0.18933427 0.597 1.5028279e-38
0.0062333331 -0.18870001 0.59500003 1.4936083e-38
0.007366667 -0.18870001 0.59500003 1.4752781e-38
0.0084857149 -0.18838288 0.59400004 1.4937172e-38
0.0096009532 -0.18806574 0.59300005 1.5028651e-38
0.010712381 -0.18774857 0.59200001 1.5120847e-38
0.01184 -0.18774857 0.59200001 1.5397431e-38
0.012945714 -0.18743144 0.59100002 1.5489627e-38
0.014071429 -0.18743144 0.59100002 1.5397797e-38
0.015171429 -0.1871143 0.59000003 1.5397797e-38
0.01626762 -0.18679714 0.58900005 1.5489997e-38
0.01736 -0.18648 0.588 1.5766584e-38
0.018479999 -0.18648 0.588 1.5674384e-38
0.0196 -0.18648 0.588 1.5858775e-38
0.020684762 -0.18616286 0.58700001 1.5859128e-38
0.021765715 -0.18584573 0.58600003 1.6135715e-38
0.022842858 -0.18552858 0.58500004 1.6134996e-38
0.023957144 -0.18552858 0.58500004 1.6227192e-38
0.025071429 -0.18552858 0.58500004 1.6411586e-38
0.026140954 -0.18521143 0.58400005 1.6503781e-38
0.027253335 -0.18521143 0.58400005 1.6411949e-38
0.028365716 -0.18521143 0.58400005 1.6504144e-38
0.029478097 -0.18521143 0.58400005 1.6687817e-38
0.030590478 -0.18521143 0.58400005 1.6964404e-38
0.031648569 -0.18489429 0.583 1.6687821e-38
0.032702859 -0.18457714 0.58200002 1.7056604e-38
0.033811431 -0.18457714 0.58200002 1.7056952e-38
0.03492 -0.18457714 0.58200002 1.6964757e-38
0.035966668 -0.18426001 0.58100003 1.7056955e-38
0.037073337 -0.18426001 0.58100003 1.7517933e-38
0.038180001 -0.18426001 0.58100003 1.7426088e-38
0.039286669 -0.18426001 0.58100003 1.7518284e-38
0.040393334 -0.18426001 0.58100003 1.7610496e-38
0.041571431 -0.18457714 0.58200002 1.7518301e-38
0.042680003 -0.18457714 0.58200002 1.7518294e-38
0.043713335 -0.18426001 0.58100003 1.7518294e-38
0.044819999 -0.18426001 0.58100003 1.7610126e-38
0.046005715 -0.18457714 0.58200002 1.7702322e-38
0.047114287 -0.18457714 0.58200002 1.7794517e-38
0.048222858 -0.18457714 0.58200002 1.7794517e-38
0.049331427 -0.18457714 0.58200002 1.7702688e-38
0.050526667 -0.18489429 0.583 1.7887079e-38
0.051637143 -0.18489429 0.583 1.7702688e-38
0.052747622 -0.18489429 0.583 1.7702688e-38
0.053950481 -0.18521143 0.58400005 1.7610492e-38
0.055157147 -0.18552858 0.58500004 1.7794883e-38
0.056175243 -0.18521143 0.58400005 1.7703406e-38
0.057287622 -0.18521143 0.58400005 1.7703406e-38
0.058500003 -0.18552858 0.58500004 1.7795248e-38
0.05961429 -0.18552858 0.58500004 1.7795248e-38
0.060728572 -0.18552858 0.58500004 1.7703404e-38
0.061842863 -0.18552858 0.58500004 1.7703404e-38
0.063064761 -0.18584573 0.58600003 1.7703404e-38
0.064290479 -0.18616286 0.58700001 1.7703404e-38
0.065408573 -0.18616286 0.58700001 1.7703041e-38
0.066526674 -0.18616286 0.58700001 1.7703041e-38
0.067759998 -0.18648 0.588 1.7519012e-38
0.068997145 -0.18679714 0.58900005 1.7611208e-38
0.070119053 -0.18679714 0.58900005 1.7610492e-38
0.071361914 -0.1871143 0.59000003 1.7610492e-38
0.072608575 -0.18743144 0.59100002 1.7518294e-38
0.073859051 -0.18774857 0.59200001 1.7426098e-38
0.074986666 -0.18774857 0.59200001 1.7333902e-38
0.076242864 -0.18806574 0.59300005 1.7610489e-38
0.077502862 -0.18838288 0.59400004 1.7426098e-38
0.078634292 -0.18838288 0.59400004 1.7333902e-38
0.080034286 -0.18901715 0.59600002 1.7149514e-38
0.081305712 -0.18933427 0.597 1.7057318e-38
0.082580961 -0.18965144 0.59800005 1.6873291e-38
0.08386001 -0.18996859 0.59900004 1.6781096e-38
0.085284762 -0.19060287 0.60100001 1.6413028e-38
0.086717151 -0.19123715 0.60300004 1.6505223e-38
0.088302858 -0.19218858 0.60600001 1.6412652e-38
0.089900002 -0.19314002 0.60900003 1.4292153e-38
0.091209523 -0.19345714 0.61000001 1.3649328e-38
-0.0088000009 -0.19418667 0.61600006 2.010048e-38
-0.0076266672 -0.19418667 0.61600006 2.0377067e-38
-0.0064533339 -0.19418667 0.61600006 1.899414e-38
-0.0052714283 -0.19387142 0.61500001 1.3554597e-38
-0.0040466674 -0.19134954 0.60700005 1.2172393e-38
-0.0028857142 -0.19103429 0.60600001 1.3831914e-38
-0.0017314287 -0.19103429 0.60600001 1.4475105e-38
-0.00057523814 -0.19040382 0.60400003 1.4475105e-38
0.00057428575 -0.19008859 0.60300004 1.4107408e-38
0.0017228572 -0.19008859 0.60300004 1.4383995e-38
0.0028619049 -0.18945809 0.60100001 1.4659143e-38
0.0040000002 -0.18914287 0.60000002 1.4843534e-38
0.005117143 -0.18819714 0.597 1.4935733e-38
0.0062438096 -0.1878819 0.59600002 1.4935733e-38
0.007366667 -0.18756667 0.59500003 1.4935733e-38
0.0084857149 -0.18725143 0.59400004 1.5304515e-38
0.0096009532 -0.18693621 0.59300005 1.5028651e-38
0.010730477 -0.18693621 0.59300005 1.5305238e-38
0.011860001 -0.18693621 0.59300005 1.5397431e-38
0.012967619 -0.18662095 0.59200001 1.5305235e-38
0.014071429 -0.18630572 0.59100002 1.5304882e-38
0.015171429 -0.18599048 0.59000003 1.5673665e-38
0.01626762 -0.18567525 0.58900005 1.5582188e-38
0.017389525 -0.18567525 0.58900005 1.5766579e-38
0.018479999 -0.18536 0.588 1.5674381e-38
0.0196 -0.18536 0.588 1.5950968e-38
0.020684762 -0.18504475 0.58700001 1.5951321e-38
0.021765715 -0.18472953 0.58600003 1.6135712e-38
0.022881905 -0.18472953 0.58600003 1.6227192e-38
0.023957144 -0.1844143 0.58500004 1.6319387e-38
0.025071429 -0.1844143 0.58500004 1.6319387e-38
0.026185717 -0.1844143 0.58500004 1.6503779e-38
0.0273 -0.1844143 0.58500004 1.6503426e-38
0.028414289 -0.1844143 0.58500004 1.6687817e-38
0.029478097 -0.18409906 0.58400005 1.6688536e-38
0.030590478 -0.18409906 0.58400005 1.6872927e-38
0.031648569 -0.18378381 0.583 1.6688533e-38
0.032702859 -0.18346857 0.58200002 1.6872924e-38
0.033811431 -0.18346857 0.58200002 1.7056952e-38
0.034979999 -0.18378381 0.583 1.6964757e-38
0.036028571 -0.18346857 0.58200002 1.696476e-38
0.037137143 -0.18346857 0.58200002 1.7517933e-38
0.038245715 -0.18346857 0.58200002 1.7518284e-38
0.039354287 -0.18346857 0.58200002 1.7518284e-38
0.040532384 -0.18378381 0.583 1.7518296e-38
0.041571431 -0.18346857 0.58200002 1.7518296e-38
0.042680003 -0.18346857 0.58200002 1.7610129e-38
0.043788571 -0.18346857 0.58200002 1.7610129e-38
0.044897143 -0.18346857 0.58200002 1.7610126e-38
0.046005715 -0.18346857 0.58200002 1.7610126e-38
0.047114287 -0.18346857 0.58200002 1.7702325e-38
0.048305713 -0.18378381 0.583 1.779452e-38
0.049416192 -0.18378381 0.583 1.7702688e-38
0.050526667 -0.18378381 0.583 1.7702688e-38
0.051637143 -0.18378381 0.583 1.7611211e-38
0.052838098 -0.18409906 0.58400005 1.7703406e-38
0.053950481 -0.18409906 0.58400005 1.7702685e-38
0.055157147 -0.1844143 0.58500004 1.779488e-38
0.05627143 -0.1844143 0.58500004 1.7703406e-38
0.057385717 -0.1844143 0.58500004 1.7703406e-38
0.058500003 -0.1844143 0.58500004 1.7795602e-38
0.05961429 -0.1844143 0.58500004 1.7795602e-38
0.060832385 -0.18472953 0.58600003 1.7795236e-38
0.061948575 -0.18472953 0.58600003 1.7795236e-38
0.063172385 -0.18504475 0.58700001 1.7795599e-38
0.064290479 -0.18504475 0.58700001 1.7703404e-38
0.065519996 -0.18536 0.588 1.7703757e-38
0.066639997 -0.18536 0.588 1.7703757e-38
0.067759998 -0.18536 0.588 1.7611205e-38
0.068997145 -0.18567525 0.58900005 1.7611205e-38
0.070119053 -0.18567525 0.58900005 1.7610492e-38
0.071361914 -0.18599048 0.59000003 1.7610492e-38
0.072608575 -0.18630572 0.59100002 1.7610492e-38
0.073859051 -0.18662095 0.59200001 1.7518296e-38
0.075113341 -0.18693621 0.59300005 1.7518294e-38
0.076371431 -0.18725143 0.59400004 1.7610489e-38
0.077502862 -0.18725143 0.59400004 1.7426098e-38
0.078899048 -0.1878819 0.59600002 1.7333902e-38
0.080168575 -0.18819714 0.597 1.7149151e-38
0.081441909 -0.1885124 0.59800005 1.7149151e-38
0.08271905 -0.18882763 0.59900004 1.6965123e-38
0.08386001 -0.18882763 0.59900004 1.6872927e-38
0.085426673 -0.18977335 0.60200006 1.6597059e-38
0.087148577 -0.19103429 0.60600001 1.6504863e-38
0.088302858 -0.19103429 0.60600001 1.5675111e-38
0.089900002 -0.19198 0.60900003 1.4292177e-38
0.091060005 -0.19198 0.60900003 1.4109233e-38
-0.009924762 -0.19207335 0.61300004 1.9916089e-38
-0.0087571433 -0.19207335 0.61300004 2.0008285e-38
-0.0076266672 -0.19301334 0.61600006 2.0469263e-38
-0.0064533339 -0.19301334 0.61600006 1.927001e-38
-0.0052800006 -0.19301334 0.61600006 1.401486e-38
-0.0040466674 -0.19019336 0.60700005 1.2633007e-38
-0.0028857142 -0.18988 0.60600001 1.383155e-38
-0.0017314287 -0.18988 0.60600001 1.4382909e-38
-0.00057523814 -0.18925333 0.60400003 1.4382909e-38
0.00057428575 -0.18894 0.60300004 1.4199604e-38
0.0017228572 -0.18894 0.60300004 1.4383995e-38
0.0028666668 -0.18862668 0.60200006 1.4659143e-38
0.0040000002 -0.18800001 0.60000002 1.4751339e-38
0.005117143 -0.18706 0.597 1.4843537e-38
0.0062438096 -0.18674666 0.59600002 1.4935733e-38
0.007354286 -0.18612 0.59400004 1.5027572e-38
0.0084857149 -0.18612 0.59400004 1.5211964e-38
0.0096009532 -0.18580668 0.59300005 1.50283e-38
0.010730477 -0.18580668 0.59300005 1.5397082e-38
0.011860001 -0.18580668 0.59300005 1.5397431e-38
0.012967619 -0.18549334 0.59200001 1.5397431e-38
0.014071429 -0.18518001 0.59100002 1.5397078e-38
0.015171429 -0.18486668 0.59000003 1.5673665e-38
0.01626762 -0.18455335 0.58900005 1.5673665e-38
0.017389525 -0.18455335 0.58900005 1.5858056e-38
0.018511431 -0.18455335 0.58900005 1.5674384e-38
0.0196 -0.18424 0.588 1.5858775e-38
0.020719999 -0.18424 0.588 1.5951321e-38
0.021802856 -0.18392667 0.58700001 1.6043517e-38
0.022881905 -0.18361333 0.58600003 1.6043163e-38
0.023998097 -0.18361333 0.58600003 1.6227555e-38
0.025071429 -0.1833 0.58500004 1.6320106e-38
0.026185717 -0.1833 0.58500004 1.6320106e-38
0.0273 -0.1833 0.58500004 1.641123e-38
0.028414289 -0.1833 0.58500004 1.6595621e-38
0.029478097 -0.18298668 0.58400005 1.6595977e-38
0.030590478 -0.18298668 0.58400005 1.6872564e-38
0.031648569 -0.18267334 0.583 1.6688536e-38
0.032702859 -0.18236001 0.58200002 1.6780731e-38
0.033811431 -0.18236001 0.58200002 1.696476e-38
0.03492 -0.18236001 0.58200002 1.7333542e-38
0.036028571 -0.18236001 0.58200002 1.7241344e-38
0.037137143 -0.18236001 0.58200002 1.7517931e-38
0.038311429 -0.18267334 0.583 1.7426088e-38
0.039421905 -0.18267334 0.583 1.7518284e-38
0.040532384 -0.18267334 0.583 1.7518649e-38
0.041571431 -0.18236001 0.58200002 1.7426454e-38
0.042680003 -0.18236001 0.58200002 1.7610126e-38
0.043788571 -0.18236001 0.58200002 1.7702322e-38
0.044897143 -0.18236001 0.58200002 1.7701969e-38
0.046005715 -0.18236001 0.58200002 1.7701969e-38
0.047114287 -0.18236001 0.58200002 1.7702325e-38
0.048305713 -0.18267334 0.583 1.779452e-38
0.049416192 -0.18267334 0.583 1.7702688e-38
0.050613336 -0.18298668 0.58400005 1.7702688e-38
0.051725719 -0.18298668 0.58400005 1.7611208e-38
0.052838098 -0.18298668 0.58400005 1.7611208e-38
0.054042861 -0.1833 0.58500004 1.7610845e-38
0.055157147 -0.1833 0.58500004 1.7795236e-38
0.05627143 -0.1833 0.58500004 1.7703406e-38
0.057385717 -0.1833 0.58500004 1.7703406e-38
0.058500003 -0.1833 0.58500004 1.7795599e-38
0.059716195 -0.18361333 0.58600003 1.7795599e-38
0.060832385 -0.18361333 0.58600003 1.7703041e-38
0.061948575 -0.18361333 0.58600003 1.7887432e-38
0.063172385 -0.18392667 0.58700001 1.7795248e-38
0.064290479 -0.18392667 0.58700001 1.7795248e-38
0.065519996 -0.18424 0.588 1.7703401e-38
0.066639997 -0.18424 0.588 1.7703401e-38
0.067759998 -0.18424 0.588 1.7703757e-38
0.068997145 -0.18455335 0.58900005 1.7611561e-38
0.070119053 -0.18455335 0.58900005 1.7519015e-38
0.071361914 -0.18486668 0.59000003 1.7519015e-38
0.072608575 -0.18518001 0.59100002 1.7518296e-38
0.073983818 -0.18580668 0.59300005 1.7426101e-38
0.075366668 -0.18643333 0.59500003 1.7518296e-38
0.076628573 -0.18674666 0.59600002 1.7518296e-38
0.077894285 -0.18706 0.597 1.7425735e-38
0.07903143 -0.18706 0.597 1.7333539e-38
0.080302864 -0.18737336 0.59800005 1.7241346e-38
0.081441909 -0.18737336 0.59800005 1.7056955e-38
0.082857139 -0.18800001 0.60000002 1.696512e-38
0.084000006 -0.18800001 0.60000002 1.6872924e-38
0.085568577 -0.18894 0.60300004 1.6597059e-38
0.087148577 -0.18988 0.60600001 1.6228276e-38
0.088448577 -0.19019336 0.60700005 1.5767312e-38
0.089900002 -0.19082001 0.60900003 1.4384378e-38
0.091060005 -0.19082001 0.60900003 1.4386906e-38
-0.011092382 -0.19090572 0.61300004 1.9731698e-38
-0.009924762 -0.19090572 0.61300004 1.9916089e-38
-0.0087571433 -0.19090572 0.61300004 2.0008645e-38
-0.0076266672 -0.19184002 0.61600006 2.0469623e-38
-0.0064533339 -0.19184002 0.61600006 1.954695e-38
-0.0052714283 -0.19152856 0.61500001 1.4015213e-38
-0.0040533338 -0.18934858 0.60800004 1.2725203e-38
-0.0028904765 -0.18903716 0.60700005 1.383155e-38
-0.0017342858 -0.18903716 0.60700005 1.4107408e-38
-0.00057714287 -0.18872571 0.60600001 1.4107408e-38
0.00057523814 -0.18810287 0.60400003 1.4199957e-38
0.0017228572 -0.18779144 0.60300004 1.4476544e-38
0.0028666668 -0.18748002 0.60200006 1.4476191e-38
0.0040066671 -0.18716858 0.60100001 1.4568386e-38
0.0051342859 -0.18654573 0.59900004 1.4568389e-38
0.0062438096 -0.18561143 0.59600002 1.4844976e-38
0.007354286 -0.18498857 0.59400004 1.4937169e-38
0.0084857149 -0.18498857 0.59400004 1.4937169e-38
0.0096009532 -0.18467715 0.59300005 1.4752425e-38
0.010730477 -0.18467715 0.59300005 1.5213403e-38
0.011860001 -0.18467715 0.59300005 1.5397431e-38
0.012967619 -0.1843657 0.59200001 1.5305235e-38
0.014071429 -0.18405429 0.59100002 1.5304882e-38
0.015171429 -0.18374287 0.59000003 1.5673665e-38
0.016295239 -0.18374287 0.59000003 1.5674021e-38
0.017389525 -0.18343143 0.58900005 1.5858412e-38
0.018511431 -0.18343143 0.58900005 1.5766579e-38
0.0196 -0.18312 0.588 1.5950971e-38
0.020719999 -0.18312 0.588 1.5951321e-38
0.021802856 -0.18280858 0.58700001 1.6043517e-38
0.022920953 -0.18280858 0.58700001 1.6135349e-38
0.023998097 -0.18249714 0.58600003 1.6319741e-38
0.025114287 -0.18249714 0.58600003 1.6411583e-38
0.026230477 -0.18249714 0.58600003 1.6503779e-38
0.027346667 -0.18249714 0.58600003 1.6503779e-38
0.028414289 -0.18218572 0.58500004 1.6595974e-38
0.029528571 -0.18218572 0.58500004 1.6595977e-38
0.030590478 -0.18187431 0.58400005 1.6872564e-38
0.031648569 -0.18156286 0.583 1.6872561e-38
0.032702859 -0.18125144 0.58200002 1.6872561e-38
0.033811431 -0.18125144 0.58200002 1.6872927e-38
0.03492 -0.18125144 0.58200002 1.7149514e-38
0.036028571 -0.18125144 0.58200002 1.7241346e-38
0.037137143 -0.18125144 0.58200002 1.7425738e-38
0.038311429 -0.18156286 0.583 1.7334258e-38
0.039421905 -0.18156286 0.583 1.7334258e-38
0.040532384 -0.18156286 0.583 1.7426098e-38
0.041642856 -0.18156286 0.583 1.7518294e-38
0.042753331 -0.18156286 0.583 1.7610129e-38
0.043788571 -0.18125144 0.58200002 1.779452e-38
0.044897143 -0.18125144 0.58200002 1.7794164e-38
0.046084762 -0.18156286 0.583 1.7701969e-38
0.047195237 -0.18156286 0.583 1.7702325e-38
0.048388578 -0.18187431 0.58400005 1.779452e-38
0.049500957 -0.18187431 0.58400005 1.7611211e-38
0.050613336 -0.18187431 0.58400005 1.7703406e-38
0.051725719 -0.18187431 0.58400005 1.7703404e-38
0.052928574 -0.18218572 0.58500004 1.7703404e-38
0.054042861 -0.18218572 0.58500004 1.7795236e-38
0.055157147 -0.18218572 0.58500004 1.7795236e-38
0.05627143 -0.18218572 0.58500004 1.7703406e-38
0.057385717 -0.18218572 0.58500004 1.7795602e-38
0.058600001 -0.18249714 0.58600003 1.7887076e-38
0.059716195 -0.18249714 0.58600003 1.7887076e-38
0.060832385 -0.18249714 0.58600003 1.7886713e-38
0.062054284 -0.18280858 0.58700001 1.7978909e-38
0.063172385 -0.18280858 0.58700001 1.7795602e-38
0.064290479 -0.18280858 0.58700001 1.7703406e-38
0.065519996 -0.18312 0.588 1.7703404e-38
0.066639997 -0.18312 0.588 1.7703404e-38
0.067875244 -0.18343143 0.58900005 1.7519731e-38
0.06911429 -0.18374287 0.59000003 1.7611927e-38
0.070238099 -0.18374287 0.59000003 1.742718e-38
0.071361914 -0.18374287 0.59000003 1.7334984e-38
0.072731428 -0.1843657 0.59200001 1.7334624e-38
0.074108571 -0.18498857 0.59400004 1.7242428e-38
0.075493336 -0.18561143 0.59600002 1.7334269e-38
0.07675714 -0.18592285 0.597 1.7426465e-38
0.077894285 -0.18592285 0.597 1.715023e-38
0.07916382 -0.18623431 0.59800005 1.7242425e-38
0.080302864 -0.18623431 0.59800005 1.7241346e-38
0.081578098 -0.18654573 0.59900004 1.7149151e-38
0.082857139 -0.18685715 0.60000002 1.6872927e-38
0.084000006 -0.18685715 0.60000002 1.6872927e-38
0.085568577 -0.18779144 0.60300004 1.6689255e-38
0.087148577 -0.18872571 0.60600001 1.6136081e-38
0.088594295 -0.18934858 0.60800004 1.5675114e-38
0.09004762 -0.18997143 0.61000001 1.4476571e-38
0.091209523 -0.18997143 0.61000001 1.4938991e-38
-0.011092382 -0.18973809 0.61300004 1.9732414e-38
-0.009924762 -0.18973809 0.61300004 1.9824609e-38
-0.0087571433 -0.18973809 0.61300004 2.0008645e-38
-0.0076266672 -0.19066668 0.61600006 2.0654014e-38
-0.0064533339 -0.19066668 0.61600006 1.9639146e-38
-0.0052714283 -0.19035713 0.61500001 1.4015213e-38
-0.0040533338 -0.18819048 0.60800004 1.2725558e-38
-0.0028952383 -0.18819048 0.60800004 1.373971e-38
-0.0017342858 -0.18788098 0.60700005 1.4382556e-38
-0.00057714287 -0.18757142 0.60600001 1.4382556e-38
0.00057523814 -0.18695238 0.60400003 1.4382909e-38
0.0017257143 -0.18695238 0.60400003 1.45673e-38
0.0028666668 -0.18633336 0.60200006 1.4659146e-38
0.0040066671 -0.1860238 0.60100001 1.4751341e-38
0.0051342859 -0.18540478 0.59900004 1.4843181e-38
0.0062438096 -0.1844762 0.59600002 1.5211964e-38
0.007366667 -0.18416668 0.59500003 1.5120118e-38
0.0085000005 -0.18416668 0.59500003 1.5212314e-38
0.0096171433 -0.18385716 0.59400004 1.5304512e-38
0.010730477 -0.18354763 0.59300005 1.5396708e-38
0.011860001 -0.18354763 0.59300005 1.5305235e-38
0.012967619 -0.1832381 0.59200001 1.5305235e-38
0.014095238 -0.1832381 0.59200001 1.5304882e-38
0.015197143 -0.18292858 0.59100002 1.5673665e-38
0.016295239 -0.18261907 0.59000003 1.5857333e-38
0.017419048 -0.18261907 0.59000003 1.5857333e-38
0.018511431 -0.18230954 0.58900005 1.576586e-38
0.0196 -0.18200001 0.588 1.6042447e-38
0.020719999 -0.18200001 0.588 1.6043156e-38
0.021839999 -0.18200001 0.588 1.6043156e-38
0.02296 -0.18200001 0.588 1.5950958e-38
0.024039049 -0.18169048 0.58700001 1.6135349e-38
0.025157144 -0.18169048 0.58700001 1.6227911e-38
0.026275238 -0.18169048 0.58700001 1.6412302e-38
0.027393334 -0.18169048 0.58700001 1.6503779e-38
0.028462859 -0.18138096 0.58600003 1.6595974e-38
0.029528571 -0.18107145 0.58500004 1.6596693e-38
0.03064286 -0.18107145 0.58500004 1.6965476e-38
0.031702857 -0.18076192 0.58400005 1.6965113e-38
0.032702859 -0.18014286 0.58200002 1.6965113e-38
0.033811431 -0.18014286 0.58200002 1.6964408e-38
0.03492 -0.18014286 0.58200002 1.7056604e-38
0.036090475 -0.18045239 0.583 1.7056599e-38
0.037200954 -0.18045239 0.583 1.7333186e-38
0.038311429 -0.18045239 0.583 1.7241707e-38
0.039421905 -0.18045239 0.583 1.7333902e-38
0.040601909 -0.18076192 0.58400005 1.7426098e-38
0.041714288 -0.18076192 0.58400005 1.7426098e-38
0.042753331 -0.18045239 0.583 1.7425382e-38
0.043863807 -0.18045239 0.583 1.7609773e-38
0.044974286 -0.18045239 0.583 1.7609777e-38
0.046084762 -0.18045239 0.583 1.7609777e-38
0.047195237 -0.18045239 0.583 1.7610845e-38
0.048388578 -0.18076192 0.58400005 1.7610845e-38
0.049585715 -0.18107145 0.58500004 1.7702688e-38
0.050700005 -0.18107145 0.58500004 1.7794883e-38
0.051814288 -0.18107145 0.58500004 1.779488e-38
0.052928574 -0.18107145 0.58500004 1.779488e-38
0.054135241 -0.18138096 0.58600003 1.779488e-38
0.055251431 -0.18138096 0.58600003 1.779488e-38
0.056367621 -0.18138096 0.58600003 1.7794883e-38
0.057483811 -0.18138096 0.58600003 1.7794883e-38
0.058600001 -0.18138096 0.58600003 1.779488e-38
0.059716195 -0.18138096 0.58600003 1.7979272e-38
0.06093619 -0.18169048 0.58700001 1.779488e-38
0.062054284 -0.18169048 0.58700001 1.779488e-38
0.063280001 -0.18200001 0.588 1.7703406e-38
0.064400002 -0.18200001 0.588 1.7703406e-38
0.065631427 -0.18230954 0.58900005 1.7703406e-38
0.066753335 -0.18230954 0.58900005 1.7611211e-38
0.067875244 -0.18230954 0.58900005 1.7611205e-38
0.06911429 -0.18261907 0.59000003 1.7703401e-38
0.070238099 -0.18261907 0.59000003 1.742682e-38
0.071361914 -0.18261907 0.59000003 1.742682e-38
0.072731428 -0.1832381 0.59200001 1.7334269e-38
0.074358098 -0.1844762 0.59600002 1.7334269e-38
0.075620003 -0.18478571 0.597 1.7426468e-38
0.07675714 -0.18478571 0.597 1.7242077e-38
0.078024767 -0.18509525 0.59800005 1.7241714e-38
0.07916382 -0.18509525 0.59800005 1.7241714e-38
0.080437146 -0.18540478 0.59900004 1.7241346e-38
0.081578098 -0.18540478 0.59900004 1.7149151e-38
0.082995243 -0.1860238 0.60100001 1.678145e-38
0.084280007 -0.18633336 0.60200006 1.6689255e-38
0.085994281 -0.18757142 0.60600001 1.6597053e-38
0.087148577 -0.18757142 0.60600001 1.5951684e-38
0.088594295 -0.18819048 0.60800004 1.5583281e-38
0.09004762 -0.18880953 0.61000001 1.4292542e-38
-0.0099733341 -0.18949334 0.61600006 1.9732774e-38
-0.0088000009 -0.18949334 0.61600006 2.0008645e-38
-0.0076266672 -0.18949334 0.61600006 2.0654014e-38
-0.0064533339 -0.18949334 0.61600006 1.9731695e-38
-0.0052714283 -0.18918572 0.61500001 1.4199957e-38
-0.0040666666 -0.18764761 0.61000001 1.2817398e-38
-0.002904762 -0.18764761 0.61000001 1.3923746e-38
-0.0017400001 -0.18734001 0.60900003 1.4474752e-38
-0.00057904766 -0.1870324 0.60800004 1.4382556e-38
0.00057714287 -0.18641715 0.60600001 1.4382909e-38
0.0017314287 -0.18641715 0.60600001 1.45673e-38
0.0028714288 -0.18549429 0.60300004 1.4566947e-38
0.0040133335 -0.18518668 0.60200006 1.4751339e-38
0.0051342859 -0.18426381 0.59900004 1.4935014e-38
0.0062542856 -0.18364856 0.597 1.4935014e-38
0.0073790476 -0.18334097 0.59600002 1.4659146e-38
0.0085000005 -0.18303335 0.59500003 1.521232e-38
0.0096171433 -0.18272573 0.59400004 1.5304863e-38
0.010730477 -0.18241811 0.59300005 1.5489254e-38
0.011860001 -0.18241811 0.59300005 1.5488901e-38
0.012967619 -0.18211047 0.59200001 1.5581096e-38
0.014095238 -0.18211047 0.59200001 1.5489983e-38
0.015197143 -0.18180285 0.59100002 1.5674374e-38
0.016322857 -0.18180285 0.59100002 1.6041359e-38
0.017419048 -0.18149525 0.59000003 1.6133554e-38
0.018511431 -0.18118763 0.58900005 1.604208e-38
0.0196 -0.18088 0.588 1.6226471e-38
0.020719999 -0.18088 0.588 1.6226469e-38
0.021839999 -0.18088 0.588 1.6318664e-38
0.02296 -0.18088 0.588 1.6318662e-38
0.024039049 -0.18057238 0.58700001 1.6410857e-38
0.025157144 -0.18057238 0.58700001 1.6319743e-38
0.026275238 -0.18057238 0.58700001 1.6504135e-38
0.027393334 -0.18057238 0.58700001 1.6503779e-38
0.028511429 -0.18057238 0.58700001 1.6595974e-38
0.029579047 -0.18026477 0.58600003 1.668817e-38
0.03064286 -0.17995715 0.58500004 1.6964757e-38
0.031702857 -0.17964955 0.58400005 1.687328e-38
0.03281524 -0.17964955 0.58400005 1.687328e-38
0.033869524 -0.17934191 0.583 1.6964404e-38
0.034979999 -0.17934191 0.583 1.7056599e-38
0.036090475 -0.17934191 0.583 1.6964404e-38
0.037200954 -0.17934191 0.583 1.7333186e-38
0.038377147 -0.17964955 0.58400005 1.7333542e-38
0.039489526 -0.17964955 0.58400005 1.7333542e-38
0.040601909 -0.17964955 0.58400005 1.7517933e-38
0.041714288 -0.17964955 0.58400005 1.7517933e-38
0.042753331 -0.17934191 0.583 1.7333186e-38
0.043863807 -0.17934191 0.583 1.7609773e-38
0.044974286 -0.17934191 0.583 1.7518296e-38
0.046163812 -0.17964955 0.58400005 1.7610492e-38
0.047276191 -0.17964955 0.58400005 1.7519015e-38
0.048471432 -0.17995715 0.58500004 1.7519015e-38
0.049585715 -0.17995715 0.58500004 1.7702688e-38
0.050700005 -0.17995715 0.58500004 1.7702688e-38
0.051814288 -0.17995715 0.58500004 1.779452e-38
0.052928574 -0.17995715 0.58500004 1.7886716e-38
0.054135241 -0.18026477 0.58600003 1.7886713e-38
0.055251431 -0.18026477 0.58600003 1.7886713e-38
0.056367621 -0.18026477 0.58600003 1.779488e-38
0.057483811 -0.18026477 0.58600003 1.779488e-38
0.058700003 -0.18057238 0.58700001 1.7610489e-38
0.059818096 -0.18057238 0.58700001 1.7887076e-38
0.061040003 -0.18088 0.588 1.779488e-38
0.062159996 -0.18088 0.588 1.7887076e-38
0.063280001 -0.18088 0.588 1.7703406e-38
0.064509533 -0.18118763 0.58900005 1.7703406e-38
0.065631427 -0.18118763 0.58900005 1.7703406e-38
0.066753335 -0.18118763 0.58900005 1.7703406e-38
0.067990482 -0.18149525 0.59000003 1.7611211e-38
0.06911429 -0.18149525 0.59000003 1.7611211e-38
0.070357144 -0.18180285 0.59100002 1.7518663e-38
0.071482852 -0.18180285 0.59100002 1.7426468e-38
0.072854295 -0.18241811 0.59300005 1.7518296e-38
0.074482858 -0.18364856 0.597 1.7518296e-38
0.075620003 -0.18364856 0.597 1.7334624e-38
0.076885715 -0.18395621 0.59800005 1.7334624e-38
0.078024767 -0.18395621 0.59800005 1.715023e-38
0.079296194 -0.18426381 0.59900004 1.7058034e-38
0.080571435 -0.18457143 0.60000002 1.7149151e-38
0.081714287 -0.18457143 0.60000002 1.7056955e-38
0.08313334 -0.18518668 0.60200006 1.6872927e-38
0.084559999 -0.18580191 0.60400003 1.6780731e-38
0.085994281 -0.18641715 0.60600001 1.6412668e-38
0.087148577 -0.18641715 0.60600001 1.5951689e-38
0.088594295 -0.1870324 0.60800004 1.5399595e-38
0.09004762 -0.18764761 0.61000001 1.4754225e-38
-0.008828572 -0.18893144 0.61800003 2.0008285e-38
-0.0076514287 -0.18893144 0.61800003 2.0653654e-38
-0.0064533339 -0.18832003 0.61600006 2.0100831e-38
-0.0052628573 -0.18770857 0.61400002 1.4476897e-38
-0.0040866667 -0.18740286 0.61300004 1.2633363e-38
-0.002904762 -0.18648571 0.61000001 1.3831906e-38
-0.0017428572 -0.18648571 0.61000001 1.4382556e-38
-0.00057904766 -0.1858743 0.60800004 1.429036e-38
0.00057809526 -0.18556859 0.60700005 1.4014847e-38
0.0017314287 -0.18526286 0.60600001 1.4383629e-38
0.0028761907 -0.18465143 0.60400003 1.4659146e-38
0.0040200003 -0.18434574 0.60300004 1.4659146e-38
0.0051428573 -0.18342857 0.60000002 1.4842821e-38
0.0062542856 -0.18251142 0.597 1.4842821e-38
0.0073790476 -0.18220572 0.59600002 1.4843181e-38
0.008514286 -0.18220572 0.59600002 1.5211964e-38
0.0096333344 -0.18190001 0.59500003 1.5120825e-38
0.010748573 -0.1815943 0.59400004 1.5489607e-38
0.011880001 -0.1815943 0.59400004 1.5489257e-38
0.012989525 -0.18128859 0.59300005 1.5673648e-38
0.014095238 -0.18098286 0.59200001 1.5581099e-38
0.015222857 -0.18098286 0.59200001 1.5765491e-38
0.016322857 -0.18067716 0.59100002 1.5857689e-38
0.017419048 -0.18037143 0.59000003 1.5949885e-38
0.018542858 -0.18037143 0.59000003 1.5949529e-38
0.019633334 -0.18006572 0.58900005 1.6226116e-38
0.020755239 -0.18006572 0.58900005 1.6043156e-38
0.021839999 -0.17975999 0.588 1.6043156e-38
0.02296 -0.17975999 0.588 1.6134996e-38
0.024080001 -0.17975999 0.588 1.6227192e-38
0.025199998 -0.17975999 0.588 1.6411933e-38
0.026319999 -0.17975999 0.588 1.6411933e-38
0.02744 -0.17975999 0.588 1.6503779e-38
0.028560001 -0.17975999 0.588 1.6780366e-38
0.029629523 -0.17945428 0.58700001 1.6688523e-38
0.030695237 -0.17914857 0.58600003 1.6688523e-38
0.031757142 -0.17884287 0.58500004 1.6688889e-38
0.032871433 -0.17884287 0.58500004 1.687328e-38
0.033985715 -0.17884287 0.58500004 1.696476e-38
0.035100002 -0.17884287 0.58500004 1.7241346e-38
0.036152385 -0.17853716 0.58400005 1.7148795e-38
0.037264764 -0.17853716 0.58400005 1.7425382e-38
0.038442858 -0.17884287 0.58500004 1.7333542e-38
0.039557148 -0.17884287 0.58500004 1.7333542e-38
0.040601909 -0.17853716 0.58400005 1.7425382e-38
0.041714288 -0.17853716 0.58400005 1.7701969e-38
0.042826667 -0.17853716 0.58400005 1.7610126e-38
0.043939054 -0.17853716 0.58400005 1.7610126e-38
0.045051433 -0.17853716 0.58400005 1.7610492e-38
0.046242859 -0.17884287 0.58500004 1.7887079e-38
0.047357146 -0.17884287 0.58500004 1.7702688e-38
0.048554286 -0.17914857 0.58600003 1.7610492e-38
0.04967048 -0.17914857 0.58600003 1.7702688e-38
0.05078667 -0.17914857 0.58600003 1.7702688e-38
0.051902857 -0.17914857 0.58600003 1.7702688e-38
0.053019051 -0.17914857 0.58600003 1.7794883e-38
0.054135241 -0.17914857 0.58600003 1.779488e-38
0.055345718 -0.17945428 0.58700001 1.779488e-38
0.056463812 -0.17945428 0.58700001 1.7795599e-38
0.057581905 -0.17945428 0.58700001 1.7795599e-38
0.058800001 -0.17975999 0.588 1.7795599e-38
0.059919998 -0.17975999 0.588 1.7795599e-38
0.061040003 -0.17975999 0.588 1.779488e-38
0.062159996 -0.17975999 0.588 1.7887076e-38
0.063387625 -0.18006572 0.58900005 1.7703052e-38
0.064509533 -0.18006572 0.58900005 1.7703052e-38
0.065631427 -0.18006572 0.58900005 1.7703406e-38
0.066866674 -0.18037143 0.59000003 1.7611211e-38
0.067990482 -0.18037143 0.59000003 1.7517945e-38
0.069231428 -0.18067716 0.59100002 1.761014e-38
0.070357144 -0.18067716 0.59100002 1.7702336e-38
0.071603805 -0.18098286 0.59200001 1.761014e-38
0.072977148 -0.1815943 0.59400004 1.7426101e-38
0.074482858 -0.18251142 0.597 1.7426101e-38
0.075620003 -0.18251142 0.597 1.7334611e-38
0.076885715 -0.18281716 0.59800005 1.7334611e-38
0.078024767 -0.18281716 0.59800005 1.7334258e-38
0.079296194 -0.18312286 0.59900004 1.7242063e-38
0.080705717 -0.18373428 0.60100001 1.72417e-38
0.081850477 -0.18373428 0.60100001 1.7057308e-38
0.08313334 -0.18404001 0.60200006 1.6965473e-38
0.084559999 -0.18465143 0.60400003 1.6873277e-38
0.085994281 -0.18526286 0.60600001 1.6412313e-38
0.087148577 -0.18526286 0.60600001 1.5766944e-38
0.088594295 -0.1858743 0.60800004 1.5215557e-38
0.090195239 -0.18679142 0.611 1.5307752e-38
-0.0076514287 -0.1877543 0.61800003 2.0653651e-38
-0.0064533339 -0.18714668 0.61600006 2.056109e-38
-0.0052628573 -0.18653905 0.61400002 1.4937156e-38
-0.0040866667 -0.18623525 0.61300004 1.2356424e-38
-0.0029142858 -0.18593144 0.61200005 1.3647163e-38
-0.0017428572 -0.18532382 0.61000001 1.4382556e-38
-0.00057999999 -0.18502001 0.60900003 1.429036e-38
0.00057904766 -0.18471619 0.60800004 1.4014847e-38
0.0017342858 -0.18441239 0.60700005 1.4475825e-38
0.0028857142 -0.18410857 0.60600001 1.4751339e-38
0.0040200003 -0.18319716 0.60300004 1.4751339e-38
0.0051514283 -0.18258953 0.60100001 1.4842818e-38
0.0062752385 -0.18198191 0.59900004 1.4935014e-38
0.0073914286 -0.1813743 0.597 1.4935733e-38
0.008514286 -0.18107048 0.59600002 1.5304515e-38
0.0096333344 -0.18076667 0.59500003 1.5121548e-38
0.010748573 -0.18046287 0.59400004 1.5305939e-38
0.011880001 -0.18046287 0.59400004 1.530451e-38
0.012989525 -0.18015906 0.59300005 1.530451e-38
0.01411905 -0.18015906 0.59300005 1.5211598e-38
0.015222857 -0.17985524 0.59200001 1.5856967e-38
0.016350476 -0.17985524 0.59200001 1.5765493e-38
0.017448572 -0.17955144 0.59100002 1.5949885e-38
0.018542858 -0.17924762 0.59000003 1.5766216e-38
0.019633334 -0.17894383 0.58900005 1.5950608e-38
0.020755239 -0.17894383 0.58900005 1.6043156e-38
0.021877145 -0.17894383 0.58900005 1.6135352e-38
0.02299905 -0.17894383 0.58900005 1.6227192e-38
0.024080001 -0.17864001 0.588 1.6411583e-38
0.025199998 -0.17864001 0.588 1.6320103e-38
0.026319999 -0.17864001 0.588 1.6320103e-38
0.02744 -0.17864001 0.588 1.6503779e-38
0.028560001 -0.17864001 0.588 1.6595974e-38
0.029629523 -0.17833619 0.58700001 1.6688526e-38
0.030695237 -0.17803238 0.58600003 1.6780721e-38
0.031811427 -0.17803238 0.58600003 1.6596693e-38
0.032871433 -0.17772858 0.58500004 1.6965476e-38
0.033985715 -0.17772858 0.58500004 1.7056955e-38
0.035100002 -0.17772858 0.58500004 1.7056955e-38
0.036214288 -0.17772858 0.58500004 1.7149151e-38
0.037328575 -0.17772858 0.58500004 1.7425738e-38
0.038442858 -0.17772858 0.58500004 1.7333542e-38
0.039557148 -0.17772858 0.58500004 1.7333542e-38
0.040671431 -0.17772858 0.58500004 1.7425738e-38
0.041714288 -0.17742477 0.58400005 1.7702325e-38
0.042826667 -0.17742477 0.58400005 1.7610845e-38
0.043939054 -0.17742477 0.58400005 1.7610845e-38
0.045128573 -0.17772858 0.58500004 1.779452e-38
0.046321906 -0.17803238 0.58600003 1.7978912e-38
0.047438096 -0.17803238 0.58600003 1.7794883e-38
0.048637144 -0.17833619 0.58700001 1.7794883e-38
0.049755238 -0.17833619 0.58700001 1.7703406e-38
0.050873332 -0.17833619 0.58700001 1.7703406e-38
0.051991429 -0.17833619 0.58700001 1.7794883e-38
0.053109523 -0.17833619 0.58700001 1.7794883e-38
0.05422762 -0.17833619 0.58700001 1.7795236e-38
0.055440001 -0.17864001 0.588 1.7795236e-38
0.056559999 -0.17864001 0.588 1.7795602e-38
0.05768 -0.17864001 0.588 1.7795602e-38
0.058800001 -0.17864001 0.588 1.7795596e-38
0.059919998 -0.17864001 0.588 1.7795596e-38
0.061143812 -0.17894383 0.58900005 1.7703401e-38
0.06226572 -0.17894383 0.58900005 1.7703401e-38
0.063387625 -0.17894383 0.58900005 1.7703406e-38
0.064509533 -0.17894383 0.58900005 1.7703406e-38
0.065631427 -0.17894383 0.58900005 1.7794883e-38
0.066866674 -0.17924762 0.59000003 1.7887079e-38
0.068105713 -0.17955144 0.59100002 1.7518296e-38
0.069231428 -0.17955144 0.59100002 1.7610492e-38
0.070595242 -0.18015906 0.59300005 1.7701969e-38
0.071724765 -0.18015906 0.59300005 1.7609773e-38
0.073100001 -0.18076667 0.59500003 1.7517933e-38
0.074482858 -0.1813743 0.597 1.7517933e-38
0.07574667 -0.1816781 0.59800005 1.7426098e-38
0.076885715 -0.1816781 0.59800005 1.7333902e-38
0.078155242 -0.18198191 0.59900004 1.7242425e-38
0.079428568 -0.18228573 0.60000002 1.7242425e-38
0.080705717 -0.18258953 0.60100001 1.7334258e-38
0.081850477 -0.18258953 0.60100001 1.7057671e-38
0.083271429 -0.18319716 0.60300004 1.7149511e-38
0.084559999 -0.18350096 0.60400003 1.6780728e-38
0.085994281 -0.18410857 0.60600001 1.6504863e-38
0.087148577 -0.18410857 0.60600001 1.5767298e-38
0.088594295 -0.18471619 0.60800004 1.5122639e-38
-0.0064533339 -0.18597335 0.61600006 2.0561453e-38
-0.0052714283 -0.18567143 0.61500001 1.5029715e-38
-0.0040933336 -0.18536952 0.61400002 1.2448983e-38
-0.0029142858 -0.18476573 0.61200005 1.355533e-38
-0.0017457142 -0.1844638 0.611 1.4107055e-38
-0.00057999999 -0.18386 0.60900003 1.4107055e-38
0.00057904766 -0.18355811 0.60800004 1.4382556e-38
0.0017342858 -0.18325621 0.60700005 1.4566947e-38
0.0028857142 -0.18295428 0.60600001 1.4659143e-38
0.0040266667 -0.18235049 0.60400003 1.4751339e-38
0.0051514283 -0.18144476 0.60100001 1.4750985e-38
0.0062857145 -0.18114287 0.60000002 1.5027572e-38
0.0073914286 -0.18023714 0.597 1.5027928e-38
0.008514286 -0.17993525 0.59600002 1.5488906e-38
0.0096333344 -0.17963333 0.59500003 1.5397058e-38
0.010748573 -0.17933145 0.59400004 1.5489254e-38
0.011880001 -0.17933145 0.59400004 1.5489257e-38
0.012989525 -0.17902954 0.59300005 1.5581452e-38
0.01411905 -0.17902954 0.59300005 1.5305238e-38
0.015222857 -0.17872761 0.59200001 1.5766216e-38
0.016350476 -0.17872761 0.59200001 1.5857689e-38
0.017448572 -0.17842571 0.59100002 1.5857689e-38
0.018574286 -0.17842571 0.59100002 1.5673665e-38
0.019666668 -0.17812382 0.59000003 1.5950252e-38
0.020790478 -0.17812382 0.59000003 1.6043156e-38
0.021877145 -0.17782192 0.58900005 1.6227548e-38
0.02299905 -0.17782192 0.58900005 1.6227192e-38
0.024120953 -0.17782192 0.58900005 1.6319387e-38
0.025199998 -0.17751999 0.588 1.6319387e-38
0.026319999 -0.17751999 0.588 1.6411583e-38
0.02744 -0.17751999 0.588 1.6411586e-38
0.028560001 -0.17751999 0.588 1.6411586e-38
0.029629523 -0.17721811 0.58700001 1.6503781e-38
0.030747619 -0.17721811 0.58700001 1.6780368e-38
0.031811427 -0.1769162 0.58600003 1.6781084e-38
0.032871433 -0.17661428 0.58500004 1.6965476e-38
0.033985715 -0.17661428 0.58500004 1.6964757e-38
0.035100002 -0.17661428 0.58500004 1.6964757e-38
0.036214288 -0.17661428 0.58500004 1.7149151e-38
0.037328575 -0.17661428 0.58500004 1.7333542e-38
0.038442858 -0.17661428 0.58500004 1.7241707e-38
0.039557148 -0.17661428 0.58500004 1.7610489e-38
0.040671431 -0.17661428 0.58500004 1.7519003e-38
0.041785717 -0.17661428 0.58500004 1.7611198e-38
0.0429 -0.17661428 0.58500004 1.7518649e-38
0.04401429 -0.17661428 0.58500004 1.7610845e-38
0.045205716 -0.1769162 0.58600003 1.7702322e-38
0.046400953 -0.17721811 0.58700001 1.7702322e-38
0.047519047 -0.17721811 0.58700001 1.7702688e-38
0.048637144 -0.17721811 0.58700001 1.7702688e-38
0.049755238 -0.17721811 0.58700001 1.7794887e-38
0.050960001 -0.17751999 0.588 1.7702692e-38
0.052079998 -0.17751999 0.588 1.7702688e-38
0.053199999 -0.17751999 0.588 1.7702688e-38
0.05432 -0.17751999 0.588 1.7610845e-38
0.055440001 -0.17751999 0.588 1.7795236e-38
0.056656197 -0.17782192 0.58900005 1.7795248e-38
0.057778098 -0.17782192 0.58900005 1.7795248e-38
0.058900002 -0.17782192 0.58900005 1.7887432e-38
0.060021911 -0.17782192 0.58900005 1.7795236e-38
0.061143812 -0.17782192 0.58900005 1.7794871e-38
0.06226572 -0.17782192 0.58900005 1.7887066e-38
0.063387625 -0.17782192 0.58900005 1.7887076e-38
0.064509533 -0.17782192 0.58900005 1.779488e-38
0.065631427 -0.17782192 0.58900005 1.7795236e-38
0.066980004 -0.17842571 0.59100002 1.7887432e-38
0.068336196 -0.17902954 0.59300005 1.7610496e-38
0.069465719 -0.17902954 0.59300005 1.7702692e-38
0.070595242 -0.17902954 0.59300005 1.7610129e-38
0.071845718 -0.17933145 0.59400004 1.7610129e-38
0.073222861 -0.17993525 0.59600002 1.7518294e-38
0.074607626 -0.18053906 0.59800005 1.7426098e-38
0.07574667 -0.18053906 0.59800005 1.7334272e-38
0.076885715 -0.18053906 0.59800005 1.7242077e-38
0.078155242 -0.18084095 0.59900004 1.7241707e-38
0.079428568 -0.18114287 0.60000002 1.7241707e-38
0.080705717 -0.18144476 0.60100001 1.7333895e-38
0.081986673 -0.18174668 0.60200006 1.72417e-38
0.083409525 -0.18235049 0.60400003 1.6781447e-38
0.084559999 -0.18235049 0.60400003 1.6412665e-38
0.0861362 -0.18325621 0.60700005 1.6412665e-38
0.087436199 -0.18355811 0.60800004 1.6043882e-38
0.088739999 -0.18386 0.60900003 1.4938984e-38
-0.0064533339 -0.18480001 0.61600006 2.0561456e-38
-0.0052800006 -0.18480001 0.61600006 1.53985e-38
-0.0041 -0.18450001 0.61500001 1.2541178e-38
-0.0029190476 -0.18390001 0.61300004 1.355533e-38
-0.0017514287 -0.18390001 0.61300004 1.4199607e-38
-0.00058095239 -0.18300001 0.61000001 1.4199607e-38
0.00057999999 -0.18270001 0.60900003 1.4291434e-38
0.0017371429 -0.18240002 0.60800004 1.4383629e-38
0.0028857142 -0.18179999 0.60600001 1.4566947e-38
0.0040266667 -0.18120001 0.60400003 1.4751339e-38
0.0051600006 -0.18060002 0.60200006 1.4843537e-38
0.0062961904 -0.1803 0.60100001 1.4935733e-38
0.007416191 -0.17970002 0.59900004 1.5027572e-38
0.0085285716 -0.17910001 0.597 1.5119768e-38
0.0096495235 -0.1788 0.59600002 1.4752778e-38
0.010766666 -0.1785 0.59500003 1.5213756e-38
0.011880001 -0.17820001 0.59400004 1.5397781e-38
0.012989525 -0.17790002 0.59300005 1.5397781e-38
0.01411905 -0.17790002 0.59300005 1.5305591e-38
0.015222857 -0.1776 0.59200001 1.5582178e-38
0.016350476 -0.1776 0.59200001 1.5489627e-38
0.017448572 -0.17730001 0.59100002 1.5674018e-38
0.018574286 -0.17730001 0.59100002 1.5766214e-38
0.019666668 -0.177 0.59000003 1.6042801e-38
0.020790478 -0.177 0.59000003 1.6043156e-38
0.021877145 -0.17670001 0.58900005 1.6227548e-38
0.02299905 -0.17670001 0.58900005 1.6042801e-38
0.024120953 -0.17670001 0.58900005 1.6319387e-38
0.025242859 -0.17670001 0.58900005 1.6319387e-38
0.026364764 -0.17670001 0.58900005 1.6411583e-38
0.02744 -0.17640001 0.588 1.6411583e-38
0.028560001 -0.17640001 0.588 1.6503779e-38
0.029679999 -0.17640001 0.588 1.6503779e-38
0.030747619 -0.1761 0.58700001 1.6780366e-38
0.031811427 -0.17580001 0.58600003 1.6872917e-38
0.032927621 -0.17580001 0.58600003 1.6965113e-38
0.034043811 -0.17580001 0.58600003 1.6965113e-38
0.035100002 -0.17550001 0.58500004 1.6965113e-38
0.036214288 -0.17550001 0.58500004 1.7149151e-38
0.037328575 -0.17550001 0.58500004 1.7333542e-38
0.038508572 -0.17580001 0.58600003 1.7241707e-38
0.039692383 -0.1761 0.58700001 1.7518294e-38
0.040740956 -0.17580001 0.58600003 1.751901e-38
0.041785717 -0.17550001 0.58500004 1.751901e-38
0.0429 -0.17550001 0.58500004 1.7519012e-38
0.044089526 -0.17580001 0.58600003 1.7519012e-38
0.045205716 -0.17580001 0.58600003 1.7610489e-38
0.046400953 -0.1761 0.58700001 1.7702685e-38
0.047599997 -0.17640001 0.588 1.7702685e-38
0.048637144 -0.1761 0.58700001 1.7702685e-38
0.049755238 -0.1761 0.58700001 1.7702688e-38
0.050960001 -0.17640001 0.588 1.7702688e-38
0.052079998 -0.17640001 0.588 1.7702685e-38
0.053199999 -0.17640001 0.588 1.7702685e-38
0.054412384 -0.17670001 0.58900005 1.7702322e-38
0.055534288 -0.17670001 0.58900005 1.7794517e-38
0.056656197 -0.17670001 0.58900005 1.7887076e-38
0.057778098 -0.17670001 0.58900005 1.7887076e-38
0.058900002 -0.17670001 0.58900005 1.7795236e-38
0.060021911 -0.17670001 0.58900005 1.7795236e-38
0.061143812 -0.17670001 0.58900005 1.7887069e-38
0.06226572 -0.17670001 0.58900005 1.7979265e-38
0.063387625 -0.17670001 0.58900005 1.7887432e-38
0.064619049 -0.177 0.59000003 1.7795236e-38
0.065742865 -0.177 0.59000003 1.7611561e-38
0.067093328 -0.1776 0.59200001 1.7611561e-38
0.068336196 -0.17790002 0.59300005 1.7610492e-38
0.069465719 -0.17790002 0.59300005 1.7610492e-38
0.070714295 -0.17820001 0.59400004 1.7610129e-38
0.07196667 -0.1785 0.59500003 1.7517933e-38
0.073345713 -0.17910001 0.597 1.7517933e-38
0.074607626 -0.17940001 0.59800005 1.7517933e-38
0.07574667 -0.17940001 0.59800005 1.7333909e-38
0.076885715 -0.17940001 0.59800005 1.7333909e-38
0.078155242 -0.17970002 0.59900004 1.7241707e-38
0.07956095 -0.1803 0.60100001 1.7149511e-38
0.080840006 -0.18060002 0.60200006 1.7149511e-38
0.082122862 -0.18090001 0.60300004 1.7057315e-38
0.083685718 -0.18179999 0.60600001 1.6412668e-38
0.08484 -0.18179999 0.60600001 1.6504863e-38
0.0861362 -0.18210001 0.60700005 1.6688173e-38
0.087436199 -0.18240002 0.60800004 1.5674021e-38
0.088885717 -0.18300001 0.61000001 1.4477986e-38
-0.0064742859 -0.18422286 0.61800003 2.0653651e-38
-0.0052800006 -0.18362668 0.61600006 1.5859478e-38
-0.0041 -0.18332858 0.61500001 1.2634453e-38
-0.0029238097 -0.18303049 0.61400002 1.3279822e-38
-0.0017514287 -0.1827324 0.61300004 1.4199607e-38
-0.00058190478 -0.18213618 0.611 1.4199607e-38
0.00057999999 -0.18154 0.60900003 1.4382543e-38
0.0017371429 -0.18124191 0.60800004 1.4566935e-38
0.0028904765 -0.18094382 0.60700005 1.4658424e-38
0.00404 -0.18064572 0.60600001 1.475062e-38
0.0051600006 -0.17945336 0.60200006 1.4842818e-38
0.0062961904 -0.17915525 0.60100001 1.4935014e-38
0.0074285716 -0.17885715 0.60000002 1.493538e-38
0.0085571436 -0.17855906 0.59900004 1.493538e-38
0.0096657146 -0.17796287 0.597 1.4936456e-38
0.010784762 -0.17766476 0.59600002 1.5213043e-38
0.0119 -0.17736667 0.59500003 1.5305586e-38
0.013011429 -0.17706858 0.59400004 1.5397781e-38
0.01411905 -0.17677049 0.59300005 1.5397787e-38
0.015248572 -0.17677049 0.59300005 1.5582178e-38
0.016350476 -0.17647238 0.59200001 1.5674374e-38
0.017478095 -0.17647238 0.59200001 1.5582178e-38
0.018574286 -0.17617428 0.59100002 1.5674018e-38
0.019700002 -0.17617428 0.59100002 1.6134996e-38
0.020825714 -0.17617428 0.59100002 1.6043154e-38
0.021877145 -0.1755781 0.58900005 1.6135349e-38
0.02299905 -0.1755781 0.58900005 1.6134999e-38
0.024120953 -0.1755781 0.58900005 1.6134999e-38
0.025242859 -0.1755781 0.58900005 1.631939e-38
