# .PCD v0.7 - Point Cloud Data file format
VERSION 0.7
FIELDS x y z rgb
SIZE 4 4 4 4
TYPE F F F F
COUNT 1 1 1 1
WIDTH 988
HEIGHT 1
VIEWPOINT 0 0 0 1 0 0 0
POINTS 988
DATA ascii
0.060600001 -0.20026857 0.60600001 1.7242074e-38
0.061754286 -0.20026857 0.60600001 1.7518661e-38
0.063012384 -0.20059906 0.60700005 1.7519012e-38
0.06416858 -0.20059906 0.60700005 1.7519012e-38
0.065540001 -0.20126002 0.60900003 1.7519015e-38
0.066700004 -0.20126002 0.60900003 1.742682e-38
0.067971431 -0.20159048 0.61000001 1.7334618e-38
0.069133334 -0.20159048 0.61000001 1.7426814e-38
0.070410475 -0.20192094 0.611 1.7149881e-38
0.071691439 -0.20225143 0.61200005 1.7242077e-38
0.072857149 -0.20225143 0.61200005 1.7242074e-38
0.074264765 -0.20291239 0.61400002 1.7149878e-38
0.075557142 -0.20324285 0.61500001 1.7057329e-38
0.076853342 -0.20357335 0.61600006 1.6780742e-38
0.078406669 -0.20456477 0.61900002 1.6781096e-38
0.079714283 -0.20489523 0.62 1.6781096e-38
0.081156194 -0.2055562 0.62200004 1.6597056e-38
0.08247333 -0.20588668 0.62300003 1.6228274e-38
0.083794288 -0.20621714 0.62400001 1.5859858e-38
0.085119046 -0.20654762 0.625 1.4384728e-38
-0.0089142863 -0.20502856 0.62400001 1.3462772e-38
-0.0077133332 -0.20470001 0.62300003 1.4108141e-38
-0.0065161907 -0.20437144 0.62200004 1.4199251e-38
-0.0053228578 -0.20404287 0.62100005 1.4291446e-38
-0.0041333335 -0.2037143 0.62 1.4291446e-38
-0.002947619 -0.20338573 0.61900002 1.4568033e-38
-0.0017657144 -0.20305714 0.61800003 1.45684e-38
-0.0005857143 -0.20207143 0.61500001 1.45684e-38
0.0005847619 -0.20174286 0.61400002 1.4660585e-38
0.0017542857 -0.20174286 0.61400002 1.4568389e-38
0.0029190476 -0.2014143 0.61300004 1.4568389e-38
0.0040800003 -0.20108573 0.61200005 1.4660585e-38
0.005237143 -0.20075715 0.611 1.4568749e-38
0.0064009526 -0.20075715 0.611 1.4476554e-38
0.0075647617 -0.20075715 0.611 1.4476557e-38
0.0087285712 -0.20075715 0.611 1.4568752e-38
0.0098923808 -0.20075715 0.611 1.4475845e-38
0.010314287 -0.18728574 0.57000005 1.456804e-38
0.01138 -0.18695715 0.56900001 1.493538e-38
0.012463809 -0.18695715 0.56900001 1.4843184e-38
0.013547619 -0.18695715 0.56900001 1.5212317e-38
0.014631429 -0.18695715 0.56900001 1.5581099e-38
0.015715238 -0.18695715 0.56900001 1.5397434e-38
0.016769523 -0.18662858 0.56800002 1.5397434e-38
0.017851429 -0.18662858 0.56800002 1.576586e-38
0.018900001 -0.18630001 0.56700003 1.6134643e-38
0.019980002 -0.18630001 0.56700003 1.6227545e-38
0.021060001 -0.18630001 0.56700003 1.6411936e-38
0.022140002 -0.18630001 0.56700003 1.6411583e-38
0.023179049 -0.18597144 0.56600004 1.6595974e-38
0.024214284 -0.18564285 0.565 1.6687817e-38
0.025290476 -0.18564285 0.565 1.7333186e-38
0.026366666 -0.18564285 0.565 1.6965476e-38
0.027442858 -0.18564285 0.565 1.6504498e-38
0.03038667 -0.19780001 0.60200006 1.6413032e-38
0.031533338 -0.19780001 0.60200006 1.6505228e-38
0.032680001 -0.19780001 0.60200006 1.678145e-38
0.033826668 -0.19780001 0.60200006 1.742682e-38
0.034915239 -0.19747142 0.60100001 1.7241697e-38
0.036059998 -0.19747142 0.60100001 1.7333892e-38
0.037204765 -0.19747142 0.60100001 1.7149878e-38
0.038349524 -0.19747142 0.60100001 1.7334269e-38
0.039494287 -0.19747142 0.60100001 1.7426817e-38
0.04063905 -0.19747142 0.60100001 1.7611208e-38
0.04178381 -0.19747142 0.60100001 1.751901e-38
0.042928573 -0.19747142 0.60100001 1.751901e-38
0.044073332 -0.19747142 0.60100001 1.7518294e-38
0.045218095 -0.19747142 0.60100001 1.7426098e-38
0.046362858 -0.19747142 0.60100001 1.7519012e-38
0.047507618 -0.19747142 0.60100001 1.7979991e-38
0.048652381 -0.19747142 0.60100001 1.7519015e-38
0.049797144 -0.19747142 0.60100001 1.7611211e-38
0.050941907 -0.19747142 0.60100001 1.7518663e-38
0.052173339 -0.19780001 0.60200006 1.7518663e-38
0.053320002 -0.19780001 0.60200006 1.7519015e-38
0.054647624 -0.19845715 0.60400003 1.7703406e-38
0.055798095 -0.19845715 0.60400003 1.7611211e-38
0.056948572 -0.19845715 0.60400003 1.7611211e-38
0.05809905 -0.19845715 0.60400003 1.7703415e-38
0.059445713 -0.19911429 0.60600001 1.7703415e-38
0.060600001 -0.19911429 0.60600001 1.7611211e-38
0.061754286 -0.19911429 0.60600001 1.7519015e-38
0.063012384 -0.19944288 0.60700005 1.7519012e-38
0.064274289 -0.19977143 0.60800004 1.7519012e-38
0.065540001 -0.2001 0.60900003 1.7334269e-38
0.066809528 -0.20042858 0.61000001 1.7242074e-38
0.067971431 -0.20042858 0.61000001 1.7334621e-38
0.069246665 -0.20075715 0.611 1.7426817e-38
0.070410475 -0.20075715 0.611 1.7149881e-38
0.071691439 -0.20108573 0.61200005 1.7242077e-38
0.072976194 -0.2014143 0.61300004 1.7150233e-38
0.074385718 -0.20207143 0.61500001 1.7150233e-38
0.075680003 -0.20240001 0.61600006 1.7241721e-38
0.077102862 -0.20305714 0.61800003 1.6872938e-38
0.078533329 -0.2037143 0.62 1.6781447e-38
0.079842865 -0.20404287 0.62100005 1.6689252e-38
0.081156194 -0.20437144 0.62200004 1.6504858e-38
0.08247333 -0.20470001 0.62300003 1.6136075e-38
0.08392857 -0.20535713 0.625 1.5582565e-38
0.085119046 -0.20535713 0.625 1.4384022e-38
-0.0077133332 -0.20351334 0.62300003 1.4108493e-38
-0.0065161907 -0.20318668 0.62200004 1.3738982e-38
-0.0053228578 -0.20286001 0.62100005 1.4292156e-38
-0.0041333335 -0.20253333 0.62 1.4383998e-38
-0.002947619 -0.20220667 0.61900002 1.4568389e-38
-0.0017657144 -0.20188001 0.61800003 1.4476557e-38
-0.0005857143 -0.2009 0.61500001 1.4568752e-38
0.0005847619 -0.20057334 0.61400002 1.4660585e-38
0.0017542857 -0.20057334 0.61400002 1.4660585e-38
0.0029190476 -0.20024668 0.61300004 1.4568386e-38
0.0040800003 -0.19992001 0.61200005 1.4660582e-38
0.005237143 -0.19959334 0.611 1.4660585e-38
0.0064009526 -0.19959334 0.611 1.4568389e-38
0.0075647617 -0.19959334 0.611 1.4383645e-38
0.0087285712 -0.19959334 0.611 1.4568036e-38
0.0098923808 -0.19959334 0.611 1.4568389e-38
0.010314287 -0.18620002 0.57000005 1.4568389e-38
0.011400001 -0.18620002 0.57000005 1.4752076e-38
0.012485716 -0.18620002 0.57000005 1.4567684e-38
0.013547619 -0.18587334 0.56900001 1.4843537e-38
0.014631429 -0.18587334 0.56900001 1.5581102e-38
0.015715238 -0.18587334 0.56900001 1.5397787e-38
0.016799048 -0.18587334 0.56900001 1.5489983e-38
0.017851429 -0.18554667 0.56800002 1.5673298e-38
0.018933333 -0.18554667 0.56800002 1.5949885e-38
0.020015238 -0.18554667 0.56800002 1.6134273e-38
0.021060001 -0.18522002 0.56700003 1.6318664e-38
0.022140002 -0.18522002 0.56700003 1.6042801e-38
0.023220001 -0.18522002 0.56700003 1.6503779e-38
0.024257144 -0.18489334 0.56600004 1.6504142e-38
0.025290476 -0.18456666 0.565 1.6872924e-38
0.026366666 -0.18456666 0.565 1.6781445e-38
0.027442858 -0.18456666 0.565 1.6504858e-38
0.030437144 -0.19698001 0.60300004 1.6780731e-38
0.031533338 -0.19665335 0.60200006 1.7149514e-38
0.032680001 -0.19665335 0.60200006 1.6966202e-38
0.033826668 -0.19665335 0.60200006 1.7150593e-38
0.034915239 -0.19632667 0.60100001 1.6597419e-38
0.036059998 -0.19632667 0.60100001 1.7058397e-38
0.037204765 -0.19632667 0.60100001 1.715023e-38
0.038349524 -0.19632667 0.60100001 1.7334621e-38
0.039494287 -0.19632667 0.60100001 1.7334624e-38
0.04063905 -0.19632667 0.60100001 1.7519015e-38
0.04178381 -0.19632667 0.60100001 1.7519015e-38
0.042928573 -0.19632667 0.60100001 1.7519015e-38
0.044073332 -0.19632667 0.60100001 1.7519012e-38
0.045218095 -0.19632667 0.60100001 1.7519012e-38
0.046362858 -0.19632667 0.60100001 1.751901e-38
0.047507618 -0.19632667 0.60100001 1.7703401e-38
0.048733339 -0.19665335 0.60200006 1.7426098e-38
0.049880005 -0.19665335 0.60200006 1.7702685e-38
0.051026672 -0.19665335 0.60200006 1.7702688e-38
0.052173339 -0.19665335 0.60200006 1.7610492e-38
0.053408574 -0.19698001 0.60300004 1.7519015e-38
0.054647624 -0.19730668 0.60400003 1.7611211e-38
0.055798095 -0.19730668 0.60400003 1.7611211e-38
0.056948572 -0.19730668 0.60400003 1.7611211e-38
0.058291428 -0.19796 0.60600001 1.7611575e-38
0.059445713 -0.19796 0.60600001 1.7611575e-38
0.060700003 -0.19828668 0.60700005 1.7611211e-38
0.061856195 -0.19828668 0.60700005 1.7703406e-38
0.063116193 -0.19861333 0.60800004 1.7610489e-38
0.064485714 -0.19926667 0.61000001 1.7610489e-38
0.065647617 -0.19926667 0.61000001 1.7242074e-38
0.066809528 -0.19926667 0.61000001 1.7334269e-38
0.068082854 -0.19959334 0.611 1.7426098e-38
0.069246665 -0.19959334 0.611 1.7518294e-38
0.070525721 -0.19992001 0.61200005 1.7149878e-38
0.071808569 -0.20024668 0.61300004 1.7242074e-38
0.07309524 -0.20057334 0.61400002 1.7241707e-38
0.074385718 -0.2009 0.61500001 1.7333902e-38
0.075680003 -0.20122668 0.61600006 1.7242074e-38
0.077102862 -0.20188001 0.61800003 1.6965487e-38
0.078533329 -0.20253333 0.62 1.6689615e-38
0.079842865 -0.20286001 0.62100005 1.6689615e-38
0.081286669 -0.20351334 0.62300003 1.6597409e-38
0.082738094 -0.20416667 0.625 1.6044235e-38
0.084197149 -0.20482001 0.62700003 1.5491071e-38
0.085527621 -0.20514667 0.62800002 1.5030093e-38
-0.0077133332 -0.20232667 0.62300003 1.4016297e-38
-0.0065161907 -0.20200193 0.62200004 1.3923017e-38
-0.0053228578 -0.20167716 0.62100005 1.4383995e-38
-0.0041333335 -0.20135237 0.62 1.4383995e-38
-0.002947619 -0.20102763 0.61900002 1.4383995e-38
-0.0017657144 -0.20070286 0.61800003 1.4476194e-38
-0.0005857143 -0.19972856 0.61500001 1.4660585e-38
0.0005847619 -0.19940382 0.61400002 1.4568386e-38
0.0017542857 -0.19940382 0.61400002 1.4568386e-38
0.0029190476 -0.19907905 0.61300004 1.4751339e-38
0.0040866667 -0.19907905 0.61300004 1.493573e-38
0.0052457144 -0.1987543 0.61200005 1.4935733e-38
0.0064009526 -0.19842952 0.611 1.4843537e-38
0.0075647617 -0.19842952 0.611 1.4567684e-38
0.0087285712 -0.19842952 0.611 1.4567684e-38
0.0098923808 -0.19842952 0.611 1.4475838e-38
0.010332381 -0.18543907 0.57100004 1.4660229e-38
0.011420001 -0.18543907 0.57100004 1.4843918e-38
0.012485716 -0.18511429 0.57000005 1.4567331e-38
0.013571429 -0.18511429 0.57000005 1.4750988e-38
0.014657144 -0.18511429 0.57000005 1.5304162e-38
0.015715238 -0.18478952 0.56900001 1.5673285e-38
0.016799048 -0.18478952 0.56900001 1.5765481e-38
0.017851429 -0.18446477 0.56800002 1.5673295e-38
0.018933333 -0.18446477 0.56800002 1.5765491e-38
0.020015238 -0.18446477 0.56800002 1.6133907e-38
0.021097142 -0.18446477 0.56800002 1.6318299e-38
0.022179047 -0.18446477 0.56800002 1.6317945e-38
0.023260953 -0.18446477 0.56800002 1.6686728e-38
0.024342857 -0.18446477 0.56800002 1.6411583e-38
0.025380002 -0.18414001 0.56700003 1.6872561e-38
0.026460001 -0.18414001 0.56700003 1.6873277e-38
0.029288573 -0.19583145 0.60300004 1.6781082e-38
0.030437144 -0.19583145 0.60300004 1.7057668e-38
0.031585716 -0.19583145 0.60300004 1.7149864e-38
0.032680001 -0.19550668 0.60200006 1.6965841e-38
0.033826668 -0.19550668 0.60200006 1.7150233e-38
0.034915239 -0.19518191 0.60100001 1.7241707e-38
0.036059998 -0.19518191 0.60100001 1.7518294e-38
0.037204765 -0.19518191 0.60100001 1.7333902e-38
0.038349524 -0.19518191 0.60100001 1.7333902e-38
0.039494287 -0.19518191 0.60100001 1.7242074e-38
0.04063905 -0.19518191 0.60100001 1.7426465e-38
0.04178381 -0.19518191 0.60100001 1.7427184e-38
0.042928573 -0.19518191 0.60100001 1.7427184e-38
0.044073332 -0.19518191 0.60100001 1.7519015e-38
0.045293339 -0.19550668 0.60200006 1.7519015e-38
0.046440005 -0.19550668 0.60200006 1.7610845e-38
0.047586668 -0.19550668 0.60200006 1.7610845e-38
0.048733339 -0.19550668 0.60200006 1.7518647e-38
0.049880005 -0.19550668 0.60200006 1.7703038e-38
0.051026672 -0.19550668 0.60200006 1.7611211e-38
0.052173339 -0.19550668 0.60200006 1.7519015e-38
0.053408574 -0.19583145 0.60300004 1.7427184e-38
0.054828569 -0.19680572 0.60600001 1.7427184e-38
0.055982858 -0.19680572 0.60600001 1.7519015e-38
0.057137143 -0.19680572 0.60600001 1.7611211e-38
0.058291428 -0.19680572 0.60600001 1.7519375e-38
0.059543811 -0.19713049 0.60700005 1.7519375e-38
0.060700003 -0.19713049 0.60700005 1.7519015e-38
0.061958101 -0.19745526 0.60800004 1.7519015e-38
0.063116193 -0.19745526 0.60800004 1.7610489e-38
0.064485714 -0.19810477 0.61000001 1.7610489e-38
0.065755233 -0.19842952 0.611 1.7426105e-38
0.066919044 -0.19842952 0.611 1.7426105e-38
0.068082854 -0.19842952 0.611 1.7426101e-38
0.069360003 -0.1987543 0.61200005 1.7426101e-38
0.070640959 -0.19907905 0.61300004 1.7240995e-38
0.071925715 -0.19940382 0.61400002 1.7240995e-38
0.073214285 -0.19972856 0.61500001 1.7241707e-38
0.074748576 -0.20070286 0.61800003 1.7241707e-38
0.075925715 -0.20070286 0.61800003 1.7149511e-38
0.077227622 -0.20102763 0.61900002 1.7057315e-38
0.078533329 -0.20135237 0.62 1.6689971e-38
0.079842865 -0.20167716 0.62100005 1.6597775e-38
0.081286669 -0.20232667 0.62300003 1.6597409e-38
0.083002865 -0.20362572 0.62700003 1.5767649e-38
0.08433143 -0.20395048 0.62800002 1.5214849e-38
0.085527621 -0.20395048 0.62800002 1.5122653e-38
-0.0077257147 -0.20146286 0.62400001 1.4107774e-38
-0.0065266667 -0.20114 0.62300003 1.4107764e-38
-0.0053314292 -0.20081715 0.62200004 1.4292156e-38
-0.0041399999 -0.20049429 0.62100005 1.42918e-38
-0.0029523808 -0.20017144 0.62 1.4383995e-38
-0.0017657144 -0.19952573 0.61800003 1.4383642e-38
-0.00058666669 -0.19888002 0.61600006 1.4475838e-38
0.0005857143 -0.19855714 0.61500001 1.4568389e-38
0.0017542857 -0.19823429 0.61400002 1.4568389e-38
0.0029190476 -0.19791143 0.61300004 1.4843534e-38
0.0040866667 -0.19791143 0.61300004 1.493573e-38
0.0052542859 -0.19791143 0.61300004 1.4843537e-38
0.006411429 -0.19758859 0.61200005 1.4843537e-38
0.0075771436 -0.19758859 0.61200005 1.4568036e-38
0.0087285712 -0.19726571 0.611 1.4660232e-38
0.0098923808 -0.19726571 0.611 1.4660585e-38
0.010350476 -0.18467429 0.57200003 1.4660585e-38
0.01144 -0.18467429 0.57200003 1.5119416e-38
0.01250762 -0.18435144 0.57100004 1.4566243e-38
0.013571429 -0.18402858 0.57000005 1.4657708e-38
0.014657144 -0.18402858 0.57000005 1.5303077e-38
0.015742857 -0.18402858 0.57000005 1.5304147e-38
0.016828572 -0.18402858 0.57000005 1.5580734e-38
0.017882857 -0.18370572 0.56900001 1.5581099e-38
0.018966667 -0.18370572 0.56900001 1.5673295e-38
0.020050475 -0.18370572 0.56900001 1.5857323e-38
0.021134285 -0.18370572 0.56900001 1.5857323e-38
0.022218095 -0.18370572 0.56900001 1.5856254e-38
0.023260953 -0.18338285 0.56800002 1.6132841e-38
0.024342857 -0.18338285 0.56800002 1.6226116e-38
0.025424764 -0.18338285 0.56800002 1.6963681e-38
0.026553333 -0.18370572 0.56900001 1.67818e-38
0.029288573 -0.19468288 0.60300004 1.7058387e-38
0.030437144 -0.19468288 0.60300004 1.715023e-38
0.031585716 -0.19468288 0.60300004 1.7058034e-38
0.032680001 -0.19436002 0.60200006 1.7058037e-38
0.033826668 -0.19436002 0.60200006 1.7242428e-38
0.034915239 -0.19403714 0.60100001 1.7426454e-38
0.036059998 -0.19403714 0.60100001 1.7426454e-38
0.037204765 -0.19403714 0.60100001 1.7425382e-38
0.038349524 -0.19403714 0.60100001 1.7425382e-38
0.039494287 -0.19403714 0.60100001 1.7242428e-38
0.04063905 -0.19403714 0.60100001 1.7519015e-38
0.04178381 -0.19403714 0.60100001 1.7519375e-38
0.043000005 -0.19436002 0.60200006 1.742718e-38
0.044146668 -0.19436002 0.60200006 1.7611208e-38
0.045293339 -0.19436002 0.60200006 1.7519012e-38
0.046440005 -0.19436002 0.60200006 1.7611205e-38
0.047586668 -0.19436002 0.60200006 1.7611205e-38
0.048733339 -0.19436002 0.60200006 1.7703041e-38
0.049880005 -0.19436002 0.60200006 1.7703041e-38
0.051026672 -0.19436002 0.60200006 1.7519375e-38
0.052260004 -0.19468288 0.60300004 1.7519375e-38
0.053497147 -0.19500573 0.60400003 1.751938e-38
0.054828569 -0.19565143 0.60600001 1.7427184e-38
0.055982858 -0.19565143 0.60600001 1.7427184e-38
0.057137143 -0.19565143 0.60600001 1.7611575e-38
0.058387626 -0.19597431 0.60700005 1.7611927e-38
0.059543811 -0.19597431 0.60700005 1.7519731e-38
0.060800005 -0.19629715 0.60800004 1.7519731e-38
0.062060002 -0.19662 0.60900003 1.7427536e-38
0.063323803 -0.19694287 0.61000001 1.7519012e-38
0.06459143 -0.19726571 0.611 1.7519012e-38
0.065755233 -0.19726571 0.611 1.7426465e-38
0.066919044 -0.19726571 0.611 1.7334269e-38
0.068082854 -0.19726571 0.611 1.7425382e-38
0.069473341 -0.19791143 0.61300004 1.7425382e-38
0.070756197 -0.19823429 0.61400002 1.7148799e-38
0.07204286 -0.19855714 0.61500001 1.7240995e-38
0.073333338 -0.19888002 0.61600006 1.7241346e-38
0.074748576 -0.19952573 0.61800003 1.7241346e-38
0.076048575 -0.19984858 0.61900002 1.7058037e-38
0.077227622 -0.19984858 0.61900002 1.6965841e-38
0.078533329 -0.20017144 0.62 1.6689619e-38
0.079842865 -0.20049429 0.62100005 1.6689619e-38
0.081417143 -0.20146286 0.62400001 1.6504863e-38
0.08313524 -0.2027543 0.62800002 1.5582907e-38
0.08433143 -0.2027543 0.62800002 1.4845692e-38
0.08566381 -0.20307714 0.62900001 1.5398866e-38
-0.0077257147 -0.20027429 0.62400001 1.4015581e-38
-0.0065371431 -0.20027429 0.62400001 1.401486e-38
-0.0053400001 -0.19995333 0.62300003 1.4107055e-38
-0.0041466667 -0.19963239 0.62200004 1.4566947e-38
-0.0029571431 -0.19931145 0.62100005 1.4659143e-38
-0.0017657144 -0.19834858 0.61800003 1.4383642e-38
-0.00058666669 -0.19770668 0.61600006 1.4291446e-38
0.0005857143 -0.19738571 0.61500001 1.4383642e-38
0.0017542857 -0.19706477 0.61400002 1.4660229e-38
0.0029238097 -0.19706477 0.61400002 1.4568389e-38
0.0040866667 -0.19674382 0.61300004 1.4568389e-38
0.0052542859 -0.19674382 0.61300004 1.4568389e-38
0.006411429 -0.19642287 0.61200005 1.4476194e-38
0.0075771436 -0.19642287 0.61200005 1.4568389e-38
0.0087285712 -0.1961019 0.611 1.4568389e-38
0.0098923808 -0.1961019 0.611 1.4568033e-38
0.010368572 -0.18390571 0.57300001 1.4660229e-38
0.01144 -0.18358476 0.57200003 1.4935733e-38
0.012529524 -0.18358476 0.57200003 1.4474755e-38
0.013595238 -0.18326382 0.57100004 1.4566234e-38
0.014682857 -0.18326382 0.57100004 1.5119408e-38
0.015770478 -0.18326382 0.57100004 1.5303784e-38
0.016828572 -0.18294287 0.57000005 1.5488175e-38
0.017914288 -0.18294287 0.57000005 1.5672569e-38
0.018966667 -0.18262191 0.56900001 1.585696e-38
0.020050475 -0.18262191 0.56900001 1.5856607e-38
0.021134285 -0.18262191 0.56900001 1.5948803e-38
0.022218095 -0.18262191 0.56900001 1.5948447e-38
0.023301905 -0.18262191 0.56900001 1.5948447e-38
0.024385713 -0.18262191 0.56900001 1.5765514e-38
0.025469523 -0.18262191 0.56900001 1.6595275e-38
0.026553333 -0.18262191 0.56900001 1.6780716e-38
0.027637143 -0.18262191 0.56900001 1.7057303e-38
0.030487619 -0.19385524 0.60400003 1.72417e-38
0.031638097 -0.19385524 0.60400003 1.7149504e-38
0.032734286 -0.1935343 0.60300004 1.7057322e-38
0.03388286 -0.1935343 0.60300004 1.7426105e-38
0.034973338 -0.19321336 0.60200006 1.7425738e-38
0.036120001 -0.19321336 0.60200006 1.7425738e-38
0.037266672 -0.19321336 0.60200006 1.7426105e-38
0.038413335 -0.19321336 0.60200006 1.7887083e-38
0.039560005 -0.19321336 0.60200006 1.751901e-38
0.040706672 -0.19321336 0.60200006 1.7703401e-38
0.041853335 -0.19321336 0.60200006 1.7611205e-38
0.043000005 -0.19321336 0.60200006 1.7611205e-38
0.044146668 -0.19321336 0.60200006 1.7611205e-38
0.045368575 -0.1935343 0.60300004 1.751901e-38
0.046517145 -0.1935343 0.60300004 1.7702685e-38
0.047665719 -0.1935343 0.60300004 1.779488e-38
0.048814289 -0.1935343 0.60300004 1.7702685e-38
0.04996286 -0.1935343 0.60300004 1.7702685e-38
0.05111143 -0.1935343 0.60300004 1.7611211e-38
0.052260004 -0.1935343 0.60300004 1.7703406e-38
0.053497147 -0.19385524 0.60400003 1.7610856e-38
0.054919053 -0.19481811 0.60700005 1.7610856e-38
0.055982858 -0.19449714 0.60600001 1.7703055e-38
0.057137143 -0.19449714 0.60600001 1.7703055e-38
0.058387626 -0.19481811 0.60700005 1.7703394e-38
0.059543811 -0.19481811 0.60700005 1.7703394e-38
0.060800005 -0.19513905 0.60800004 1.751901e-38
0.062060002 -0.19546001 0.60900003 1.751901e-38
0.063323803 -0.19578096 0.61000001 1.7518649e-38
0.06459143 -0.1961019 0.611 1.7518649e-38
0.065755233 -0.1961019 0.611 1.7518663e-38
0.066919044 -0.1961019 0.611 1.7610859e-38
0.068194285 -0.19642287 0.61200005 1.7426105e-38
0.069586664 -0.19706477 0.61400002 1.7241714e-38
0.070871428 -0.19738571 0.61500001 1.7241714e-38
0.07204286 -0.19738571 0.61500001 1.7241714e-38
0.073333338 -0.19770668 0.61600006 1.7241707e-38
0.074869521 -0.19866954 0.61900002 1.7149511e-38
0.076048575 -0.19866954 0.61900002 1.7149511e-38
0.077352382 -0.19899048 0.62 1.7057315e-38
0.078533329 -0.19899048 0.62 1.6689615e-38
0.079842865 -0.19931145 0.62100005 1.6597419e-38
0.081547618 -0.20059523 0.625 1.6504872e-38
0.08313524 -0.2015581 0.62800002 1.5398524e-38
0.08446572 -0.20187905 0.62900001 1.4663109e-38
0.08566381 -0.20187905 0.62900001 1.5953847e-38
0.087000005 -0.20220001 0.63000005 1.7059493e-38
-0.011508572 -0.2029143 0.63600004 1.7795599e-38
-0.010297143 -0.2029143 0.63600004 1.2909231e-38
-0.0090857148 -0.2029143 0.63600004 1.3093622e-38
-0.0077752387 -0.20036191 0.62800002 1.4015578e-38
-0.0065371431 -0.19908573 0.62400001 1.4107411e-38
-0.0053400001 -0.19876666 0.62300003 1.4199607e-38
-0.0041466667 -0.19844763 0.62200004 1.4291802e-38
-0.0029571431 -0.19812858 0.62100005 1.4383998e-38
-0.0017714286 -0.19780952 0.62 1.4383642e-38
-0.00058666669 -0.19653335 0.61600006 1.4383642e-38
0.0005857143 -0.19621429 0.61500001 1.4383998e-38
0.0017571428 -0.19621429 0.61500001 1.4568389e-38
0.0029238097 -0.19589524 0.61400002 1.4568033e-38
0.0040866667 -0.19557621 0.61300004 1.4568033e-38
0.0052542859 -0.19557621 0.61300004 1.4660585e-38
0.006421905 -0.19557621 0.61300004 1.4568389e-38
0.0075895241 -0.19557621 0.61300004 1.4568389e-38
0.0087428577 -0.19525716 0.61200005 1.4660585e-38
0.0092771426 -0.18281429 0.57300001 1.4660585e-38
0.010368572 -0.18281429 0.57300001 1.4844976e-38
0.01146 -0.18281429 0.57300001 1.5211964e-38
0.012529524 -0.18249525 0.57200003 1.4566594e-38
0.013619049 -0.18249525 0.57200003 1.4474033e-38
0.014708571 -0.18249525 0.57200003 1.475062e-38
0.015798096 -0.18249525 0.57200003 1.5118676e-38
0.016858097 -0.1821762 0.57100004 1.5118676e-38
0.017945714 -0.1821762 0.57100004 1.5210522e-38
0.019033333 -0.1821762 0.57100004 1.5394913e-38
0.020085717 -0.18185715 0.57000005 1.5395266e-38
0.02117143 -0.18185715 0.57000005 1.5671853e-38
0.022257145 -0.18185715 0.57000005 1.6040998e-38
0.023301905 -0.18153811 0.56900001 1.6040998e-38
0.024385713 -0.18153811 0.56900001 1.5856981e-38
0.025469523 -0.18153811 0.56900001 1.6594546e-38
0.026553333 -0.18153811 0.56900001 1.6412302e-38
0.027637143 -0.18153811 0.56900001 1.6781084e-38
0.030588571 -0.19334285 0.60600001 1.7149151e-38
0.031638097 -0.19270477 0.60400003 1.7149151e-38
0.032734286 -0.19238573 0.60300004 1.6688536e-38
0.03388286 -0.19238573 0.60300004 1.7333905e-38
0.03503143 -0.19238573 0.60300004 1.7425738e-38
0.036180001 -0.19238573 0.60300004 1.7333542e-38
0.037328575 -0.19238573 0.60300004 1.7333916e-38
0.038477149 -0.19238573 0.60300004 1.7610503e-38
0.039625715 -0.19238573 0.60300004 1.733534e-38
0.04077429 -0.19238573 0.60300004 1.7427536e-38
0.04192286 -0.19238573 0.60300004 1.7427536e-38
0.04307143 -0.19238573 0.60300004 1.7519731e-38
0.044220004 -0.19238573 0.60300004 1.7703406e-38
0.045368575 -0.19238573 0.60300004 1.7703406e-38
0.046517145 -0.19238573 0.60300004 1.7702685e-38
0.047744766 -0.19270477 0.60400003 1.779488e-38
0.048814289 -0.19238573 0.60300004 1.7609773e-38
0.04996286 -0.19238573 0.60300004 1.7794164e-38
0.051196195 -0.19270477 0.60400003 1.7887079e-38
0.052346669 -0.19270477 0.60400003 1.7794883e-38
0.053674288 -0.19334285 0.60600001 1.7611211e-38
0.054919053 -0.19366191 0.60700005 1.7611211e-38
0.056075241 -0.19366191 0.60700005 1.7703406e-38
0.057231434 -0.19366191 0.60700005 1.7703406e-38
0.058483813 -0.19398096 0.60800004 1.7703041e-38
0.059641909 -0.19398096 0.60800004 1.7703041e-38
0.060900003 -0.19430001 0.60900003 1.779488e-38
0.062161908 -0.19461904 0.61000001 1.7702685e-38
0.06342762 -0.19493809 0.611 1.751901e-38
0.06459143 -0.19493809 0.611 1.7611205e-38
0.065755233 -0.19493809 0.611 1.7518661e-38
0.067028575 -0.19525716 0.61200005 1.7518661e-38
0.068305716 -0.19557621 0.61300004 1.7426105e-38
0.069586664 -0.19589524 0.61400002 1.7333909e-38
0.070871428 -0.19621429 0.61500001 1.7333905e-38
0.072160006 -0.19653335 0.61600006 1.7333905e-38
0.073333338 -0.19653335 0.61600006 1.7150233e-38
0.074869521 -0.19749048 0.61900002 1.7058037e-38
0.076048575 -0.19749048 0.61900002 1.7149511e-38
0.077352382 -0.19780952 0.62 1.6872924e-38
0.078660011 -0.19812858 0.62100005 1.6597423e-38
0.079842865 -0.19812858 0.62100005 1.6505228e-38
0.081417143 -0.19908573 0.62400001 1.6504863e-38
0.08313524 -0.20036191 0.62800002 1.5398516e-38
0.08446572 -0.20068094 0.62900001 1.4478349e-38
0.085800007 -0.20100002 0.63000005 1.613787e-38
0.087000005 -0.20100002 0.63000005 1.7427913e-38
-0.012740001 -0.20202 0.63700002 1.9824256e-38
-0.011508572 -0.20170286 0.63600004 1.7979993e-38
-0.010297143 -0.20170286 0.63600004 1.2817038e-38
-0.0090714293 -0.20138572 0.63500005 1.3001427e-38
-0.0078247627 -0.2004343 0.63200003 1.3923383e-38
-0.0065685716 -0.19884859 0.62700003 1.4015216e-38
-0.0053485716 -0.19789715 0.62400001 1.4015216e-38
-0.0041533331 -0.19758001 0.62300003 1.4107055e-38
-0.0029619047 -0.19726287 0.62200004 1.4383642e-38
-0.0017742858 -0.19694573 0.62100005 1.4383649e-38
-0.00058952381 -0.19631143 0.61900002 1.4475845e-38
0.00058857148 -0.19599429 0.61800003 1.4383642e-38
0.0017571428 -0.19504285 0.61500001 1.4660229e-38
0.0029238097 -0.19472572 0.61400002 1.4660229e-38
0.0040866667 -0.19440858 0.61300004 1.4568033e-38
0.0052542859 -0.19440858 0.61300004 1.4568389e-38
0.006421905 -0.19440858 0.61300004 1.4568389e-38
0.0075895241 -0.19440858 0.61300004 1.4476544e-38
0.0087571433 -0.19440858 0.61300004 1.456874e-38
0.0092771426 -0.18172286 0.57300001 1.4660585e-38
0.010368572 -0.18172286 0.57300001 1.5029367e-38
0.01146 -0.18172286 0.57300001 1.530451e-38
0.012551429 -0.18172286 0.57300001 1.4566945e-38
0.013642858 -0.18172286 0.57300001 1.4290351e-38
0.014734286 -0.18172286 0.57300001 1.4382546e-38
0.015798096 -0.18140572 0.57200003 1.484209e-38
0.01688762 -0.18140572 0.57200003 1.5118676e-38
0.017945714 -0.1810886 0.57100004 1.5118326e-38
0.019033333 -0.1810886 0.57100004 1.5302717e-38
0.020120952 -0.1810886 0.57100004 1.5210882e-38
0.021208571 -0.1810886 0.57100004 1.5210882e-38
0.022296192 -0.1810886 0.57100004 1.5856239e-38
0.023342859 -0.18077144 0.57000005 1.6132826e-38
0.024428573 -0.18077144 0.57000005 1.5948817e-38
0.025514288 -0.18077144 0.57000005 1.6317599e-38
0.026600001 -0.18077144 0.57000005 1.6042815e-38
0.027685717 -0.18077144 0.57000005 1.6872575e-38
0.030588571 -0.19218858 0.60600001 1.7149518e-38
0.03174286 -0.19218858 0.60600001 1.7702692e-38
0.032788571 -0.19155429 0.60400003 1.7334258e-38
0.033939049 -0.19155429 0.60400003 1.7334258e-38
0.03503143 -0.19123715 0.60300004 1.7426101e-38
0.036180001 -0.19123715 0.60300004 1.7426101e-38
0.037390478 -0.19155429 0.60400003 1.7426118e-38
0.038540956 -0.19155429 0.60400003 1.7610509e-38
0.039625715 -0.19123715 0.60300004 1.7426817e-38
0.04077429 -0.19123715 0.60300004 1.7519012e-38
0.04192286 -0.19123715 0.60300004 1.7519015e-38
0.04307143 -0.19123715 0.60300004 1.7611211e-38
0.044220004 -0.19123715 0.60300004 1.7703052e-38
0.045368575 -0.19123715 0.60300004 1.7610856e-38
0.046517145 -0.19123715 0.60300004 1.7611208e-38
0.047744766 -0.19155429 0.60400003 1.7703404e-38
0.04889524 -0.19155429 0.60400003 1.7517945e-38
0.050045718 -0.19155429 0.60400003 1.7702336e-38
0.051196195 -0.19155429 0.60400003 1.7703055e-38
0.052346669 -0.19155429 0.60400003 1.7979642e-38
0.053674288 -0.19218858 0.60600001 1.7610492e-38
0.054919053 -0.19250572 0.60700005 1.7610492e-38
0.056075241 -0.19250572 0.60700005 1.7702688e-38
0.057231434 -0.19250572 0.60700005 1.7794883e-38
0.058483813 -0.19282287 0.60800004 1.7519015e-38
0.059739999 -0.19314002 0.60900003 1.7519015e-38
0.060900003 -0.19314002 0.60900003 1.7702685e-38
0.062161908 -0.19345714 0.61000001 1.7610489e-38
0.06342762 -0.19377428 0.611 1.7703041e-38
0.06459143 -0.19377428 0.611 1.7795236e-38
0.065755233 -0.19377428 0.611 1.7518296e-38
0.067028575 -0.19409144 0.61200005 1.7426101e-38
0.068305716 -0.19440858 0.61300004 1.7426101e-38
0.069699995 -0.19504285 0.61500001 1.7333905e-38
0.070986666 -0.19536002 0.61600006 1.7333902e-38
0.072160006 -0.19536002 0.61600006 1.7518294e-38
0.073571429 -0.19599429 0.61800003 1.7149518e-38
0.074869521 -0.19631143 0.61900002 1.7057322e-38
0.076048575 -0.19631143 0.61900002 1.7149151e-38
0.077352382 -0.19662857 0.62 1.696476e-38
0.078660011 -0.19694573 0.62100005 1.66889e-38
0.079842865 -0.19694573 0.62100005 1.6596704e-38
0.081417143 -0.19789715 0.62400001 1.6412662e-38
0.08313524 -0.19916572 0.62800002 1.5214119e-38
0.08446572 -0.19948286 0.62900001 1.4202858e-38
-0.012740001 -0.20080668 0.63700002 2.0008282e-38
-0.011508572 -0.20049143 0.63600004 1.8072189e-38
-0.010297143 -0.20049143 0.63600004 1.3001429e-38
-0.0090714293 -0.20017619 0.63500005 1.3001424e-38
-0.0078247627 -0.19923049 0.63200003 1.4015576e-38
-0.0065685716 -0.19765431 0.62700003 1.4015932e-38
-0.0053485716 -0.19670857 0.62400001 1.383154e-38
-0.0041533331 -0.19639334 0.62300003 1.3738989e-38
-0.0029619047 -0.19607811 0.62200004 1.4199967e-38
-0.0017742858 -0.19576286 0.62100005 1.4383642e-38
-0.00059047621 -0.19544762 0.62 1.4475838e-38
0.00058857148 -0.19481716 0.61800003 1.4751339e-38
0.0017571428 -0.19387142 0.61500001 1.493573e-38
0.0029238097 -0.19355619 0.61400002 1.4843537e-38
0.0040933336 -0.19355619 0.61400002 1.4843537e-38
0.0052542859 -0.19324097 0.61300004 1.4568389e-38
0.006421905 -0.19324097 0.61300004 1.4568389e-38
0.0075895241 -0.19324097 0.61300004 1.4568389e-38
0.0087571433 -0.19324097 0.61300004 1.4660585e-38
0.009924762 -0.19324097 0.61300004 1.4568749e-38
0.010404763 -0.18126191 0.57500005 1.4937532e-38
0.01148 -0.18094666 0.574 1.5029014e-38
0.012573333 -0.18094666 0.574 1.4107058e-38
0.013666667 -0.18094666 0.574 1.4104524e-38
0.01476 -0.18094666 0.574 1.4473307e-38
0.015825715 -0.18063143 0.57300001 1.4749891e-38
0.01688762 -0.18031621 0.57200003 1.4934282e-38
0.017977145 -0.18031621 0.57200003 1.4842808e-38
0.019066667 -0.18031621 0.57200003 1.50272e-38
0.020120952 -0.18000096 0.57100004 1.5211235e-38
0.021208571 -0.18000096 0.57100004 1.5211235e-38
0.022296192 -0.18000096 0.57100004 1.5211591e-38
0.023383811 -0.18000096 0.57100004 1.5303787e-38
0.024428573 -0.17968573 0.57000005 1.5579301e-38
0.025514288 -0.17968573 0.57000005 1.5855888e-38
0.026600001 -0.17968573 0.57000005 1.613391e-38
0.027685717 -0.17968573 0.57000005 1.7148062e-38
0.030588571 -0.19103429 0.60600001 1.7057685e-38
0.031638097 -0.19040382 0.60400003 1.7426468e-38
0.032734286 -0.19008859 0.60300004 1.7334618e-38
0.03388286 -0.19008859 0.60300004 1.7334618e-38
0.03503143 -0.19008859 0.60300004 1.742682e-38
0.036180001 -0.19008859 0.60300004 1.7519015e-38
0.037390478 -0.19040382 0.60400003 1.7702692e-38
0.038540956 -0.19040382 0.60400003 1.7887083e-38
0.03969143 -0.19040382 0.60400003 1.779488e-38
0.040841907 -0.19040382 0.60400003 1.7702685e-38
0.041992385 -0.19040382 0.60400003 1.7611211e-38
0.043142859 -0.19040382 0.60400003 1.7703406e-38
0.044293337 -0.19040382 0.60400003 1.7703406e-38
0.045443811 -0.19040382 0.60400003 1.7795602e-38
0.046594288 -0.19040382 0.60400003 1.7794883e-38
0.047744766 -0.19040382 0.60400003 1.7794883e-38
0.049057145 -0.19103429 0.60600001 1.7610492e-38
0.05021143 -0.19103429 0.60600001 1.7702688e-38
0.051365715 -0.19103429 0.60600001 1.7794883e-38
0.052519999 -0.19103429 0.60600001 1.7887079e-38
0.053762861 -0.19134954 0.60700005 1.7519015e-38
0.055009525 -0.19166477 0.60800004 1.7611211e-38
0.056167625 -0.19166477 0.60800004 1.7702688e-38
0.057325717 -0.19166477 0.60800004 1.7794883e-38
0.058580004 -0.19198 0.60900003 1.7519015e-38
0.059739999 -0.19198 0.60900003 1.742682e-38
0.060900003 -0.19198 0.60900003 1.7519015e-38
0.062161908 -0.19229524 0.61000001 1.7519015e-38
0.06342762 -0.19261047 0.611 1.742682e-38
0.06459143 -0.19261047 0.611 1.7334624e-38
0.065755233 -0.19261047 0.611 1.7333909e-38
0.067028575 -0.19292574 0.61200005 1.7426105e-38
0.068417147 -0.19355619 0.61400002 1.7426101e-38
0.069699995 -0.19387142 0.61500001 1.7426101e-38
0.070986666 -0.19418667 0.61600006 1.7333902e-38
0.072160006 -0.19418667 0.61600006 1.7333902e-38
0.073333338 -0.19418667 0.61600006 1.7148795e-38
0.074869521 -0.19513239 0.61900002 1.7148795e-38
0.076048575 -0.19513239 0.61900002 1.7056955e-38
0.077352382 -0.19544762 0.62 1.696476e-38
0.078660011 -0.19576286 0.62100005 1.6780731e-38
0.079842865 -0.19576286 0.62100005 1.6780731e-38
0.082069524 -0.19828476 0.62900001 1.6597056e-38
0.083267614 -0.19828476 0.62900001 1.502973e-38
-0.012740001 -0.19959335 0.63700002 2.0100477e-38
-0.011508572 -0.19928001 0.63600004 1.8440253e-38
-0.010297143 -0.19928001 0.63600004 1.3277297e-38
-0.0090714293 -0.19896668 0.63500005 1.2909581e-38
-0.0078247627 -0.19802667 0.63200003 1.4015929e-38
-0.0065790475 -0.19677334 0.62800002 1.4107764e-38
-0.0053485716 -0.19552 0.62400001 1.419996e-38
-0.0041533331 -0.19520667 0.62300003 1.4199604e-38
-0.0029619047 -0.19489335 0.62200004 1.4383995e-38
-0.001777143 -0.19489335 0.62200004 1.45673e-38
-0.00059047621 -0.19426666 0.62 1.45673e-38
0.00058952381 -0.19395334 0.61900002 1.4659143e-38
0.0017571428 -0.1927 0.61500001 1.4751339e-38
0.0029238097 -0.19238667 0.61400002 1.4843534e-38
0.0040933336 -0.19238667 0.61400002 1.4751339e-38
0.0052628573 -0.19238667 0.61400002 1.4843181e-38
0.006421905 -0.19207335 0.61300004 1.4843181e-38
0.0075895241 -0.19207335 0.61300004 1.4843537e-38
0.0087571433 -0.19207335 0.61300004 1.4843537e-38
0.009924762 -0.19207335 0.61300004 1.4660229e-38
0.010422857 -0.18048 0.57600003 1.5029012e-38
0.011500001 -0.18016668 0.57500005 1.5029019e-38
0.012595239 -0.18016668 0.57500005 1.4199258e-38
0.013690477 -0.18016668 0.57500005 1.4012339e-38
0.014785715 -0.18016668 0.57500005 1.419673e-38
0.015853332 -0.17985332 0.574 1.4565856e-38
0.016917143 -0.17953999 0.57300001 1.4750247e-38
0.018008571 -0.17953999 0.57300001 1.4933919e-38
0.019099999 -0.17953999 0.57300001 1.4933919e-38
0.020156192 -0.17922667 0.57200003 1.5026834e-38
0.021245714 -0.17922667 0.57200003 1.5026834e-38
0.022335239 -0.17922667 0.57200003 1.5118674e-38
0.023383811 -0.17891334 0.57100004 1.5118674e-38
0.02447143 -0.17891334 0.57100004 1.5026491e-38
0.025559049 -0.17891334 0.57100004 1.5395273e-38
0.026646668 -0.17891334 0.57100004 1.5396711e-38
0.029434286 -0.18988 0.60600001 1.7056232e-38
0.030588571 -0.18988 0.60600001 1.7057685e-38
0.031638097 -0.18925333 0.60400003 1.7426468e-38
0.032734286 -0.18894 0.60300004 1.7334618e-38
0.03388286 -0.18894 0.60300004 1.7242423e-38
0.03503143 -0.18894 0.60300004 1.7334624e-38
0.036180001 -0.18894 0.60300004 1.7519015e-38
0.037390478 -0.18925333 0.60400003 1.7610492e-38
0.038540956 -0.18925333 0.60400003 1.7610492e-38
0.03969143 -0.18925333 0.60400003 1.7519012e-38
0.040841907 -0.18925333 0.60400003 1.7519012e-38
0.041992385 -0.18925333 0.60400003 1.7519375e-38
0.043142859 -0.18925333 0.60400003 1.7519375e-38
0.044293337 -0.18925333 0.60400003 1.779488e-38
0.045443811 -0.18925333 0.60400003 1.8163663e-38
0.046748575 -0.18988 0.60600001 1.7886716e-38
0.047902856 -0.18988 0.60600001 1.7702325e-38
0.049057145 -0.18988 0.60600001 1.7610492e-38
0.050294291 -0.19019336 0.60700005 1.7887079e-38
0.051450484 -0.19019336 0.60700005 1.7703406e-38
0.052606668 -0.19019336 0.60700005 1.7611211e-38
0.053762861 -0.19019336 0.60700005 1.7794883e-38
0.055100001 -0.19082001 0.60900003 1.7794883e-38
0.056260001 -0.19082001 0.60900003 1.7702688e-38
0.057420004 -0.19082001 0.60900003 1.7702688e-38
0.058580004 -0.19082001 0.60900003 1.7426465e-38
0.059838098 -0.19113334 0.61000001 1.7426465e-38
0.061000001 -0.19113334 0.61000001 1.7426465e-38
0.062263809 -0.19144666 0.611 1.7518661e-38
0.06342762 -0.19144666 0.611 1.7517945e-38
0.06459143 -0.19144666 0.611 1.7425749e-38
0.065862864 -0.19176002 0.61200005 1.7334269e-38
0.067138098 -0.19207335 0.61300004 1.7334269e-38
0.068417147 -0.19238667 0.61400002 1.7426098e-38
0.069699995 -0.1927 0.61500001 1.7426098e-38
0.070986666 -0.19301334 0.61600006 1.7333902e-38
0.072160006 -0.19301334 0.61600006 1.7149511e-38
0.073333338 -0.19301334 0.61600006 1.7148795e-38
0.074869521 -0.19395334 0.61900002 1.7148795e-38
0.076048575 -0.19395334 0.61900002 1.7056604e-38
0.077352382 -0.19426666 0.62 1.6964408e-38
0.078660011 -0.19458002 0.62100005 1.66889e-38
0.079842865 -0.19458002 0.62100005 1.66889e-38
-0.012740001 -0.19838001 0.63700002 2.0192676e-38
-0.011508572 -0.19806859 0.63600004 1.871684e-38
-0.010297143 -0.19806859 0.63600004 1.3185102e-38
-0.0090714293 -0.19775715 0.63500005 1.2540451e-38
-0.0078247627 -0.19682287 0.63200003 1.383119e-38
-0.0065790475 -0.19557714 0.62800002 1.4198165e-38
-0.005357143 -0.19464286 0.625 1.4382556e-38
-0.00416 -0.19433144 0.62400001 1.4474752e-38
-0.0029666668 -0.19402 0.62300003 1.4566947e-38
-0.001777143 -0.19370858 0.62200004 1.4566947e-38
-0.0005914286 -0.19339715 0.62100005 1.4566947e-38
0.00059047621 -0.19308572 0.62 1.4659496e-38
0.0017657144 -0.19246286 0.61800003 1.4751692e-38
0.0029285715 -0.19152856 0.61500001 1.4843534e-38
0.0040933336 -0.19121714 0.61400002 1.4751339e-38
0.0052628573 -0.19121714 0.61400002 1.4751341e-38
0.006421905 -0.19090572 0.61300004 1.4843537e-38
0.0075895241 -0.19090572 0.61300004 1.4750985e-38
0.0087571433 -0.19090572 0.61300004 1.4935377e-38
0.009924762 -0.19090572 0.61300004 1.5027926e-38
0.010422857 -0.17938286 0.57600003 1.5212317e-38
0.01152 -0.17938286 0.57600003 1.5029014e-38
0.012617144 -0.17938286 0.57600003 1.4107058e-38
0.013714286 -0.17938286 0.57600003 1.4012332e-38
0.014785715 -0.17907144 0.57500005 1.4012332e-38
0.015853332 -0.17875999 0.574 1.4103806e-38
0.016946668 -0.17875999 0.574 1.4472588e-38
0.01804 -0.17875999 0.574 1.456514e-38
0.019099999 -0.17844857 0.57300001 1.4657335e-38
0.020191429 -0.17844857 0.57300001 1.45655e-38
0.021245714 -0.17813715 0.57200003 1.45655e-38
0.022335239 -0.17813715 0.57200003 1.4749178e-38
0.023424761 -0.17813715 0.57200003 1.4841373e-38
0.024514288 -0.17813715 0.57200003 1.5118676e-38
0.02560381 -0.17813715 0.57200003 1.5026481e-38
0.026693335 -0.17813715 0.57200003 1.5488172e-38
0.027782857 -0.17813715 0.57200003 1.7239889e-38
0.030588571 -0.18872571 0.60600001 1.6873294e-38
0.03174286 -0.18872571 0.60600001 1.7426468e-38
0.032788571 -0.18810287 0.60400003 1.7426814e-38
0.033939049 -0.18810287 0.60400003 1.7334618e-38
0.035089526 -0.18810287 0.60400003 1.742682e-38
0.03624 -0.18810287 0.60400003 1.7519015e-38
0.037390478 -0.18810287 0.60400003 1.7519012e-38
0.038540956 -0.18810287 0.60400003 1.7519012e-38
0.03969143 -0.18810287 0.60400003 1.7427533e-38
0.040977143 -0.18872571 0.60600001 1.7427533e-38
0.042131428 -0.18872571 0.60600001 1.7519375e-38
0.043285716 -0.18872571 0.60600001 1.7611571e-38
0.044439998 -0.18872571 0.60600001 1.779488e-38
0.045594286 -0.18872571 0.60600001 1.7887076e-38
0.046748575 -0.18872571 0.60600001 1.7610492e-38
0.047981907 -0.18903716 0.60700005 1.7702688e-38
0.049138099 -0.18903716 0.60700005 1.7702688e-38
0.050294291 -0.18903716 0.60700005 1.7794883e-38
0.051535241 -0.18934858 0.60800004 1.7703052e-38
0.052693337 -0.18934858 0.60800004 1.7703052e-38
0.053851429 -0.18934858 0.60800004 1.7794883e-38
0.055190478 -0.18997143 0.61000001 1.7794883e-38
0.056352381 -0.18997143 0.61000001 1.7794883e-38
0.057514288 -0.18997143 0.61000001 1.7702688e-38
0.058676191 -0.18997143 0.61000001 1.7426465e-38
0.059838098 -0.18997143 0.61000001 1.7334269e-38
0.061000001 -0.18997143 0.61000001 1.7426101e-38
0.062263809 -0.19028285 0.611 1.7518296e-38
0.06342762 -0.19028285 0.611 1.7609773e-38
0.064697146 -0.19059429 0.61200005 1.7517577e-38
0.065862864 -0.19059429 0.61200005 1.7426101e-38
0.067247622 -0.19121714 0.61400002 1.7426101e-38
0.068417147 -0.19121714 0.61400002 1.7518294e-38
0.069699995 -0.19152856 0.61500001 1.7333902e-38
0.070986666 -0.19184002 0.61600006 1.7333902e-38
0.072160006 -0.19184002 0.61600006 1.7333902e-38
0.073333338 -0.19184002 0.61600006 1.7149514e-38
0.074748576 -0.19246286 0.61800003 1.7057318e-38
0.076171428 -0.19308572 0.62 1.6965127e-38
0.077352382 -0.19308572 0.62 1.6872931e-38
0.07980001 -0.19620003 0.63000005 1.66889e-38
0.081000008 -0.19620003 0.63000005 1.66889e-38
-0.012740001 -0.19716667 0.63700002 2.0284871e-38
-0.011526668 -0.19716667 0.63700002 1.8716844e-38
-0.010297143 -0.19685715 0.63600004 1.3277302e-38
-0.0090857148 -0.19685715 0.63600004 1.2540099e-38
-0.0078247627 -0.19561906 0.63200003 1.3738643e-38
-0.0065790475 -0.19438095 0.62800002 1.4105619e-38
-0.0053742859 -0.19407144 0.62700003 1.429001e-38
-0.0041666664 -0.19345237 0.625 1.4382556e-38
-0.0029666668 -0.19283333 0.62300003 1.4474752e-38
-0.00178 -0.19283333 0.62300003 1.456695e-38
-0.00059238099 -0.19252382 0.62200004 1.456695e-38
0.0005914286 -0.1922143 0.62100005 1.4658424e-38
0.0017685716 -0.19159524 0.61900002 1.475062e-38
0.0029428573 -0.19128571 0.61800003 1.4659146e-38
0.0041 -0.19035713 0.61500001 1.4751341e-38
0.0052628573 -0.19004762 0.61400002 1.4842818e-38
0.006432381 -0.19004762 0.61400002 1.4842818e-38
0.0076019051 -0.19004762 0.61400002 1.4843537e-38
0.0087571433 -0.18973809 0.61300004 1.5027928e-38
0.009924762 -0.18973809 0.61300004 1.5027926e-38
0.010440952 -0.17859524 0.57700002 1.5212317e-38
0.01152 -0.17828572 0.57600003 1.5119768e-38
0.012617144 -0.17828572 0.57600003 1.4382203e-38
0.013714286 -0.17828572 0.57600003 1.3920136e-38
0.014785715 -0.17797621 0.57500005 1.3459158e-38
0.015880954 -0.17797621 0.57500005 1.373432e-38
0.016946668 -0.17766666 0.574 1.4287493e-38
0.01804 -0.17766666 0.574 1.4472944e-38
0.019133333 -0.17766666 0.574 1.456514e-38
0.020191429 -0.17735715 0.57300001 1.456514e-38
0.021282857 -0.17735715 0.57300001 1.456514e-38
0.022374285 -0.17735715 0.57300001 1.4472957e-38
0.023424761 -0.17704763 0.57200003 1.4565152e-38
0.024514288 -0.17704763 0.57200003 1.4657711e-38
0.02560381 -0.17704763 0.57200003 1.4934298e-38
0.026693335 -0.17704763 0.57200003 1.4936436e-38
0.030639049 -0.18788098 0.60700005 1.7149878e-38
0.031795241 -0.18788098 0.60700005 1.7518661e-38
0.032897141 -0.18757142 0.60600001 1.7519366e-38
0.033939049 -0.18695238 0.60400003 1.742717e-38
0.035089526 -0.18695238 0.60400003 1.742682e-38
0.03624 -0.18695238 0.60400003 1.742682e-38
0.037514284 -0.18757142 0.60600001 1.7610489e-38
0.038668573 -0.18757142 0.60600001 1.7887076e-38
0.039822854 -0.18757142 0.60600001 1.7519e-38
0.040977143 -0.18757142 0.60600001 1.7519e-38
0.042131428 -0.18757142 0.60600001 1.7519375e-38
0.043285716 -0.18757142 0.60600001 1.742718e-38
0.044439998 -0.18757142 0.60600001 1.7701969e-38
0.045594286 -0.18757142 0.60600001 1.7794164e-38
0.046748575 -0.18757142 0.60600001 1.7701969e-38
0.047981907 -0.18788098 0.60700005 1.7701969e-38
0.049138099 -0.18788098 0.60700005 1.7518661e-38
0.050294291 -0.18788098 0.60700005 1.7518661e-38
0.051535241 -0.18819048 0.60800004 1.7702336e-38
0.052693337 -0.18819048 0.60800004 1.7794531e-38
0.053851429 -0.18819048 0.60800004 1.7702688e-38
0.055190478 -0.18880953 0.61000001 1.7702688e-38
0.056352381 -0.18880953 0.61000001 1.779452e-38
0.057514288 -0.18880953 0.61000001 1.7978912e-38
0.058676191 -0.18880953 0.61000001 1.7794883e-38
0.059838098 -0.18880953 0.61000001 1.7610492e-38
0.061099999 -0.18911904 0.611 1.7610489e-38
0.062263809 -0.18911904 0.611 1.7702685e-38
0.063531436 -0.18942858 0.61200005 1.7702322e-38
0.064802863 -0.18973809 0.61300004 1.7610126e-38
0.06597048 -0.18973809 0.61300004 1.7518649e-38
0.067247622 -0.19004762 0.61400002 1.7426454e-38
0.068417147 -0.19004762 0.61400002 1.7426098e-38
0.069699995 -0.19035713 0.61500001 1.7241707e-38
0.070986666 -0.19066668 0.61600006 1.7241707e-38
0.072160006 -0.19066668 0.61600006 1.7241707e-38
0.073333338 -0.19066668 0.61600006 1.7148799e-38
0.074748576 -0.19128571 0.61800003 1.7148799e-38
0.076171428 -0.19190475 0.62 1.7056599e-38
0.077352382 -0.19190475 0.62 1.6964404e-38
0.07980001 -0.19500001 0.63000005 1.6597059e-38
0.081000008 -0.19500001 0.63000005 1.6689255e-38
0.082852393 -0.19654763 0.63500005 1.6319404e-38
-0.012800001 -0.1968762 0.64000005 2.0377427e-38
-0.011526668 -0.19595334 0.63700002 1.8809035e-38
-0.010313334 -0.19595334 0.63700002 1.3277297e-38
-0.0090714293 -0.1953381 0.63500005 1.2355705e-38
-0.0078247627 -0.19441526 0.63200003 1.373864e-38
-0.006589524 -0.19349238 0.62900001 1.4289644e-38
-0.0053742859 -0.19287716 0.62700003 1.438184e-38
-0.0041800002 -0.19287716 0.62700003 1.4382556e-38
-0.0029714287 -0.19195428 0.62400001 1.4566947e-38
-0.00178 -0.19164667 0.62300003 1.456695e-38
-0.00059238099 -0.19133905 0.62200004 1.456695e-38
0.00059238099 -0.19133905 0.62200004 1.4658777e-38
0.0017714286 -0.19072381 0.62 1.4843169e-38
0.0029523808 -0.19072381 0.62 1.4750985e-38
0.0041200002 -0.19010858 0.61800003 1.4843181e-38
0.0052714283 -0.18918572 0.61500001 1.4842815e-38
0.006432381 -0.1888781 0.61400002 1.4842815e-38
0.0076019051 -0.1888781 0.61400002 1.4935014e-38
0.0087714288 -0.1888781 0.61400002 1.5119405e-38
0.009940953 -0.1888781 0.61400002 1.4752778e-38
0.010440952 -0.17749619 0.57700002 1.4937169e-38
0.01154 -0.17749619 0.57700002 1.4844623e-38
0.012639049 -0.17749619 0.57700002 1.4291449e-38
0.013714286 -0.17718858 0.57600003 1.392013e-38
0.014811429 -0.17718858 0.57600003 1.3459152e-38
0.015880954 -0.17688097 0.57500005 1.3734663e-38
0.016976191 -0.17688097 0.57500005 1.3919054e-38
0.01807143 -0.17688097 0.57500005 1.4103799e-38
0.019166669 -0.17688097 0.57500005 1.4472581e-38
0.020226667 -0.17657332 0.574 1.4381102e-38
0.021282857 -0.17626572 0.57300001 1.4473297e-38
0.022374285 -0.17626572 0.57300001 1.4472944e-38
0.023465713 -0.17626572 0.57300001 1.4472944e-38
0.024557142 -0.17626572 0.57300001 1.447367e-38
0.025648572 -0.17626572 0.57300001 1.4381474e-38
0.026740002 -0.17626572 0.57300001 1.4566938e-38
0.028922858 -0.17626572 0.57300001 1.7333902e-38
0.03174286 -0.18641715 0.60600001 1.7702685e-38
0.034051429 -0.18641715 0.60600001 1.7427533e-38
0.035205714 -0.18641715 0.60600001 1.7610489e-38
0.036359999 -0.18641715 0.60600001 1.7610489e-38
0.037514284 -0.18641715 0.60600001 1.779452e-38
0.038668573 -0.18641715 0.60600001 1.7978912e-38
0.039822854 -0.18641715 0.60600001 1.7518649e-38
0.040977143 -0.18641715 0.60600001 1.7703041e-38
0.042131428 -0.18641715 0.60600001 1.7887076e-38
0.043285716 -0.18641715 0.60600001 1.779488e-38
0.044439998 -0.18641715 0.60600001 1.779452e-38
0.045594286 -0.18641715 0.60600001 1.779452e-38
0.046748575 -0.18641715 0.60600001 1.7610492e-38
0.047981907 -0.18672478 0.60700005 1.7610492e-38
0.049138099 -0.18672478 0.60700005 1.7426465e-38
0.050377145 -0.1870324 0.60800004 1.7518661e-38
0.051535241 -0.1870324 0.60800004 1.7794164e-38
0.052693337 -0.1870324 0.60800004 1.7609773e-38
0.053851429 -0.1870324 0.60800004 1.7610129e-38
0.055190478 -0.18764761 0.61000001 1.7702325e-38
0.056352381 -0.18764761 0.61000001 1.7702325e-38
0.057514288 -0.18764761 0.61000001 1.779452e-38
0.058772378 -0.18795523 0.611 1.7794164e-38
0.059936188 -0.18795523 0.611 1.7701969e-38
0.061099999 -0.18795523 0.611 1.7519012e-38
0.06246762 -0.18857048 0.61300004 1.7611208e-38
0.063635238 -0.18857048 0.61300004 1.7610489e-38
0.064802863 -0.18857048 0.61300004 1.7518294e-38
0.06597048 -0.18857048 0.61300004 1.7518649e-38
0.067247622 -0.1888781 0.61400002 1.7426454e-38
0.068417147 -0.1888781 0.61400002 1.7334255e-38
0.069813341 -0.18949334 0.61600006 1.7334255e-38
0.070986666 -0.18949334 0.61600006 1.7241707e-38
0.072160006 -0.18949334 0.61600006 1.7241707e-38
0.073571429 -0.19010858 0.61800003 1.7149518e-38
0.074869521 -0.1904162 0.61900002 1.7057322e-38
0.076048575 -0.1904162 0.61900002 1.7056599e-38
0.078724764 -0.19410764 0.63100004 1.6872208e-38
0.07980001 -0.19380002 0.63000005 1.6504509e-38
0.081000008 -0.19380002 0.63000005 1.6504509e-38
0.082852393 -0.1953381 0.63500005 1.6226843e-38
-0.014040953 -0.19596288 0.64100003 2.010084e-38
-0.012800001 -0.19565716 0.64000005 2.0561818e-38
-0.011544761 -0.19504571 0.63800001 1.9362206e-38
-0.010313334 -0.19474 0.63700002 1.336949e-38
-0.0090714293 -0.19412859 0.63500005 1.2355352e-38
-0.0078247627 -0.19321144 0.63200003 1.3738287e-38
-0.006589524 -0.19229428 0.62900001 1.4198168e-38
-0.0053828573 -0.19198859 0.62800002 1.4290363e-38
-0.0041800002 -0.19168288 0.62700003 1.4290007e-38
-0.0029761905 -0.19107142 0.625 1.4474399e-38
