# .PCD v0.7 - Point Cloud Data file format
VERSION 0.7
FIELDS x y z rgb
SIZE 4 4 4 4
TYPE F F F F
COUNT 1 1 1 1
WIDTH 991
HEIGHT 1
VIEWPOINT 0 0 0 1 0 0 0
POINTS 991
DATA ascii
0.0048514288 -0.1945962 0.56600004 1.5950975e-38
0.0059190476 -0.19425237 0.565 1.5858779e-38
0.0069952379 -0.19425237 0.565 1.604317e-38
0.0080714291 -0.19425237 0.565 1.6411953e-38
0.0091476189 -0.19425237 0.565 1.6504498e-38
0.010223809 -0.19425237 0.565 1.6688889e-38
0.011299999 -0.19425237 0.565 1.6780731e-38
0.012354285 -0.19390857 0.56400001 1.7979274e-38
0.013428572 -0.19390857 0.56400001 1.7887066e-38
0.014502858 -0.19390857 0.56400001 1.4383632e-38
0.016405717 -0.20422287 0.59400004 1.2725558e-38
0.017537145 -0.20422287 0.59400004 1.3463124e-38
0.018637145 -0.20387906 0.59300005 1.3830838e-38
0.019766668 -0.20387906 0.59300005 1.4476208e-38
0.020896193 -0.20387906 0.59300005 1.438508e-38
0.022025717 -0.20387906 0.59300005 1.5122645e-38
0.023155238 -0.20387906 0.59300005 1.5306334e-38
0.024284763 -0.20387906 0.59300005 1.5951703e-38
0.025414288 -0.20387906 0.59300005 1.6411949e-38
0.026543811 -0.20387906 0.59300005 1.6319753e-38
0.027673336 -0.20387906 0.59300005 1.6135715e-38
0.028802859 -0.20387906 0.59300005 1.6227911e-38
0.029982859 -0.20422287 0.59400004 1.622829e-38
0.031114288 -0.20422287 0.59400004 1.6965855e-38
0.032245714 -0.20422287 0.59400004 1.7058034e-38
0.033433337 -0.20456667 0.59500003 1.7058034e-38
0.034508571 -0.20422287 0.59400004 1.7057683e-38
0.035640001 -0.20422287 0.59400004 1.7242074e-38
0.036771432 -0.20422287 0.59400004 1.7242428e-38
0.037902862 -0.20422287 0.59400004 1.7611211e-38
0.039099999 -0.20456667 0.59500003 1.7611205e-38
0.040233336 -0.20456667 0.59500003 1.7795596e-38
0.041366667 -0.20456667 0.59500003 1.7796318e-38
0.042500004 -0.20456667 0.59500003 1.7611927e-38
0.043633334 -0.20456667 0.59500003 1.7334988e-38
0.044841904 -0.20491049 0.59600002 1.7427184e-38
0.045977142 -0.20491049 0.59600002 1.742718e-38
0.047112383 -0.20491049 0.59600002 1.742718e-38
0.048166666 -0.20456667 0.59500003 1.7611211e-38
0.049300004 -0.20456667 0.59500003 1.7519015e-38
0.050433334 -0.20456667 0.59500003 1.7518661e-38
0.051566672 -0.20456667 0.59500003 1.7610856e-38
0.052877143 -0.20525429 0.597 1.7611211e-38
0.054014284 -0.20525429 0.597 1.7611211e-38
0.055243813 -0.20559812 0.59800005 1.751901e-38
0.056382861 -0.20559812 0.59800005 1.751901e-38
0.057521909 -0.20559812 0.59800005 1.7611211e-38
0.058759049 -0.20594192 0.59900004 1.7611211e-38
0.059900004 -0.20594192 0.59900004 1.7519375e-38
0.061040953 -0.20594192 0.59900004 1.7519375e-38
0.062181905 -0.20594192 0.59900004 1.7519375e-38
0.063428573 -0.20628572 0.60000002 1.742718e-38
0.064679049 -0.20662951 0.60100001 1.7334632e-38
0.065823808 -0.20662951 0.60100001 1.7426828e-38
0.067080006 -0.20697336 0.60200006 1.7518663e-38
0.068226673 -0.20697336 0.60200006 1.7426468e-38
0.069488578 -0.20731716 0.60300004 1.7334269e-38
0.07075429 -0.20766096 0.60400003 1.7242074e-38
0.072142854 -0.20834857 0.60600001 1.7242074e-38
0.073418096 -0.20869239 0.60700005 1.7242074e-38
0.074697152 -0.20903622 0.60800004 1.7058397e-38
0.075980008 -0.20938002 0.60900003 1.7150593e-38
0.077140003 -0.20938002 0.60900003 1.6966202e-38
0.078428566 -0.20972382 0.61000001 1.6874006e-38
0.079720952 -0.21006761 0.611 1.6873646e-38
0.080884762 -0.21006761 0.611 1.6873646e-38
0.082182862 -0.21041144 0.61200005 1.6597775e-38
0.08334858 -0.21041144 0.61200005 1.6044601e-38
0.085757144 -0.21350573 0.62100005 1.6043531e-38
0.086940005 -0.21350573 0.62100005 1.4752792e-38
0.088264771 -0.21384953 0.62200004 1.4017034e-38
0.089593336 -0.21419334 0.62300003 1.7612664e-38
-0.0060866671 -0.19864668 0.58100003 1.4108141e-38
-0.0049714288 -0.19830477 0.58000004 1.4292532e-38
-0.0038666669 -0.19830477 0.58000004 1.4384358e-38
-0.0027047619 -0.1942019 0.56800002 1.4384358e-38
-0.0016228572 -0.1942019 0.56800002 1.4292177e-38
-0.00054095237 -0.1942019 0.56800002 1.5306328e-38
0.00054095237 -0.1942019 0.56800002 1.5215917e-38
0.0016200001 -0.19386001 0.56700003 1.5492504e-38
0.0027000001 -0.19386001 0.56700003 1.5767293e-38
0.0037800004 -0.19386001 0.56700003 1.5767293e-38
0.0048514288 -0.1935181 0.56600004 1.5858772e-38
0.0059295241 -0.1935181 0.56600004 1.5766577e-38
0.0070076198 -0.1935181 0.56600004 1.5950968e-38
0.0080714291 -0.1931762 0.565 1.6227555e-38
0.0091476189 -0.1931762 0.565 1.631975e-38
0.010223809 -0.1931762 0.565 1.6596337e-38
0.011299999 -0.1931762 0.565 1.6597059e-38
0.012354285 -0.19283429 0.56400001 1.7703406e-38
0.013428572 -0.19283429 0.56400001 1.7887069e-38
0.014502858 -0.19283429 0.56400001 1.3830461e-38
0.015577144 -0.19283429 0.56400001 1.2448966e-38
0.017537145 -0.20309144 0.59400004 1.3463118e-38
0.018668571 -0.20309144 0.59400004 1.3647159e-38
0.0198 -0.20309144 0.59400004 1.447692e-38
0.020896193 -0.20274955 0.59300005 1.4477636e-38
0.022025717 -0.20274955 0.59300005 1.5123005e-38
0.023155238 -0.20274955 0.59300005 1.5307399e-38
0.024284763 -0.20274955 0.59300005 1.5860573e-38
0.025414288 -0.20274955 0.59300005 1.6320472e-38
0.026543811 -0.20274955 0.59300005 1.5951689e-38
0.027673336 -0.20274955 0.59300005 1.5767649e-38
0.028802859 -0.20274955 0.59300005 1.6413018e-38
0.029982859 -0.20309144 0.59400004 1.6504872e-38
0.031114288 -0.20309144 0.59400004 1.696585e-38
0.032245714 -0.20309144 0.59400004 1.7058034e-38
0.033433337 -0.20343333 0.59500003 1.7058034e-38
0.034508571 -0.20309144 0.59400004 1.7058037e-38
0.035640001 -0.20309144 0.59400004 1.7150233e-38
0.036771432 -0.20309144 0.59400004 1.7058397e-38
0.037902862 -0.20309144 0.59400004 1.7242788e-38
0.039099999 -0.20343333 0.59500003 1.7150949e-38
0.040233336 -0.20343333 0.59500003 1.7519731e-38
0.041366667 -0.20343333 0.59500003 1.7611571e-38
0.042500004 -0.20343333 0.59500003 1.7611571e-38
0.043633334 -0.20343333 0.59500003 1.7150949e-38
0.044917144 -0.20411713 0.597 1.7519731e-38
0.046054285 -0.20411713 0.597 1.7519731e-38
0.047191426 -0.20411713 0.597 1.7519731e-38
0.048247617 -0.20377524 0.59600002 1.7611211e-38
0.049382858 -0.20377524 0.59600002 1.7611211e-38
0.050518095 -0.20377524 0.59600002 1.7518649e-38
0.051739998 -0.20411713 0.597 1.7703041e-38
0.052965719 -0.20445907 0.59800005 1.7887079e-38
0.054104768 -0.20445907 0.59800005 1.7794883e-38
0.055243813 -0.20445907 0.59800005 1.7611571e-38
0.056382861 -0.20445907 0.59800005 1.7519375e-38
0.0576181 -0.20480096 0.59900004 1.779488e-38
0.058759049 -0.20480096 0.59900004 1.779488e-38
0.059900004 -0.20480096 0.59900004 1.7611211e-38
0.061040953 -0.20480096 0.59900004 1.7611211e-38
0.062181905 -0.20480096 0.59900004 1.7611575e-38
0.063534282 -0.20548476 0.60100001 1.7427184e-38
0.064679049 -0.20548476 0.60100001 1.7427184e-38
0.065823808 -0.20548476 0.60100001 1.7427184e-38
0.067080006 -0.20582668 0.60200006 1.7427184e-38
0.068226673 -0.20582668 0.60200006 1.7242793e-38
0.069488578 -0.20616859 0.60300004 1.7242074e-38
0.07075429 -0.20651048 0.60400003 1.7242074e-38
0.072142854 -0.20719428 0.60600001 1.7150593e-38
0.073539048 -0.20787811 0.60800004 1.7150593e-38
0.074820004 -0.20822001 0.60900003 1.7058401e-38
0.075980008 -0.20822001 0.60900003 1.7150597e-38
0.077266671 -0.20856191 0.61000001 1.7058401e-38
0.078428566 -0.20856191 0.61000001 1.687401e-38
0.079720952 -0.2089038 0.611 1.6873646e-38
0.080884762 -0.2089038 0.611 1.6873646e-38
0.082182862 -0.20924574 0.61200005 1.6781447e-38
0.08334858 -0.20924574 0.61200005 1.6412665e-38
0.085757144 -0.21232288 0.62100005 1.6043533e-38
0.086940005 -0.21232288 0.62100005 1.4752795e-38
0.088264771 -0.21266478 0.62200004 1.3832629e-38
0.089593336 -0.21300668 0.62300003 1.7981432e-38
-0.0060866671 -0.19754 0.58100003 1.4015946e-38
-0.0049714288 -0.19720002 0.58000004 1.4200337e-38
-0.0038666669 -0.19720002 0.58000004 1.4383642e-38
-0.0027095238 -0.19345999 0.56900001 1.4383642e-38
-0.0016257142 -0.19345999 0.56900001 1.4291814e-38
-0.00054190477 -0.19345999 0.56900001 1.4937183e-38
0.00054095237 -0.19312 0.56800002 1.5030449e-38
0.0016228572 -0.19312 0.56800002 1.5491427e-38
0.0027047619 -0.19312 0.56800002 1.5583257e-38
0.0037866668 -0.19312 0.56800002 1.5583257e-38
0.0048600002 -0.19278 0.56700003 1.5766932e-38
0.0059400005 -0.19278 0.56700003 1.5766932e-38
0.0070076198 -0.19244 0.56600004 1.5767298e-38
0.0080714291 -0.1921 0.565 1.6043885e-38
0.0091476189 -0.1921 0.565 1.6135366e-38
0.010223809 -0.1921 0.565 1.6596344e-38
0.011299999 -0.1921 0.565 1.6780731e-38
0.01237619 -0.1921 0.565 1.7887079e-38
0.013428572 -0.19176 0.56400001 1.7702678e-38
0.014502858 -0.19176 0.56400001 1.3092896e-38
0.015577144 -0.19176 0.56400001 1.2540801e-38
0.017566668 -0.20230001 0.59500003 1.3647149e-38
0.018668571 -0.20196001 0.59400004 1.3739345e-38
0.0198 -0.20196001 0.59400004 1.4753497e-38
0.020931428 -0.20196001 0.59400004 1.4938254e-38
0.022025717 -0.20162001 0.59300005 1.5583623e-38
0.023155238 -0.20162001 0.59300005 1.567545e-38
0.024284763 -0.20162001 0.59300005 1.6136428e-38
0.025414288 -0.20162001 0.59300005 1.6136065e-38
0.026543811 -0.20162001 0.59300005 1.53985e-38
0.027720002 -0.20196001 0.59400004 1.5214124e-38
0.028851431 -0.20196001 0.59400004 1.6504863e-38
0.030033335 -0.20230001 0.59500003 1.6873654e-38
0.031166669 -0.20230001 0.59500003 1.7058045e-38
0.032299999 -0.20230001 0.59500003 1.7058031e-38
0.033433337 -0.20230001 0.59500003 1.7058031e-38
0.034566667 -0.20230001 0.59500003 1.7058037e-38
0.035700001 -0.20230001 0.59500003 1.7242428e-38
0.036833335 -0.20230001 0.59500003 1.7242425e-38
0.037966669 -0.20230001 0.59500003 1.7242425e-38
0.039099999 -0.20230001 0.59500003 1.7334624e-38
0.040233336 -0.20230001 0.59500003 1.742682e-38
0.041436188 -0.20264 0.59600002 1.7427536e-38
0.042571429 -0.20264 0.59600002 1.7427536e-38
0.043706667 -0.20264 0.59600002 1.7243144e-38
0.044917144 -0.20298 0.597 1.7611927e-38
0.046054285 -0.20298 0.597 1.7611927e-38
0.047191426 -0.20298 0.597 1.7519731e-38
0.048328571 -0.20298 0.597 1.7611571e-38
0.049465712 -0.20298 0.597 1.7703767e-38
0.050602857 -0.20298 0.597 1.7611205e-38
0.051826671 -0.20332003 0.59800005 1.7703401e-38
0.052965719 -0.20332003 0.59800005 1.7703404e-38
0.054104768 -0.20332003 0.59800005 1.7703404e-38
0.055336196 -0.20366001 0.59900004 1.779525e-38
0.056477144 -0.20366001 0.59900004 1.7703055e-38
0.0576181 -0.20366001 0.59900004 1.7703406e-38
0.058759049 -0.20366001 0.59900004 1.7979993e-38
0.059900004 -0.20366001 0.59900004 1.7611211e-38
0.061142862 -0.20400001 0.60000002 1.7703406e-38
0.062285714 -0.20400001 0.60000002 1.7611575e-38
0.063534282 -0.20434001 0.60100001 1.7427184e-38
0.064679049 -0.20434001 0.60100001 1.7334988e-38
0.065823808 -0.20434001 0.60100001 1.7334988e-38
0.067080006 -0.20468001 0.60200006 1.7426465e-38
0.068340003 -0.20502001 0.60300004 1.7334269e-38
0.069488578 -0.20502001 0.60300004 1.7242788e-38
0.070988573 -0.20603999 0.60600001 1.7242788e-38
0.072261915 -0.20638002 0.60700005 1.7242788e-38
0.073539048 -0.20672001 0.60800004 1.7150593e-38
0.074820004 -0.20706001 0.60900003 1.7150597e-38
0.076104768 -0.20740001 0.61000001 1.7058401e-38
0.077266671 -0.20740001 0.61000001 1.6966206e-38
0.078557141 -0.20773999 0.611 1.687401e-38
0.079720952 -0.20773999 0.611 1.6965839e-38
0.081017151 -0.20808002 0.61200005 1.6781447e-38
0.082182862 -0.20808002 0.61200005 1.6689252e-38
0.083484761 -0.20842001 0.61300004 1.6597056e-38
0.085619047 -0.21079999 0.62 1.6043896e-38
0.086800002 -0.21079999 0.62 1.4384375e-38
0.088406667 -0.21182001 0.62300003 1.3649684e-38
0.089593336 -0.21182001 0.62300003 1.8075074e-38
-0.0060761911 -0.19609524 0.58000004 1.392375e-38
-0.0049714288 -0.19609524 0.58000004 1.4200337e-38
-0.0038666669 -0.19609524 0.58000004 1.42918e-38
-0.0027238096 -0.19339049 0.57200003 1.4199604e-38
-0.0016257142 -0.19237618 0.56900001 1.4199258e-38
-0.00054190477 -0.19237618 0.56900001 1.4844627e-38
0.00054190477 -0.19237618 0.56900001 1.4661667e-38
0.0016228572 -0.19203809 0.56800002 1.5399232e-38
0.0027047619 -0.19203809 0.56800002 1.5583257e-38
0.0037866668 -0.19203809 0.56800002 1.5583257e-38
0.0048600002 -0.1917 0.56700003 1.5674737e-38
0.0059400005 -0.1917 0.56700003 1.5766932e-38
0.0070076198 -0.19136192 0.56600004 1.5766579e-38
0.0080857147 -0.19136192 0.56600004 1.5858775e-38
0.0091638099 -0.19136192 0.56600004 1.5859494e-38
0.010223809 -0.19102381 0.565 1.6504863e-38
0.011299999 -0.19102381 0.565 1.6780728e-38
0.01237619 -0.19102381 0.565 1.7887076e-38
0.013428572 -0.19068572 0.56400001 1.7610126e-38
0.014477143 -0.19034763 0.56300002 1.309254e-38
0.015549525 -0.19034763 0.56300002 1.2446448e-38
0.017566668 -0.20116667 0.59500003 1.3368404e-38
0.018668571 -0.20082858 0.59400004 1.4013408e-38
0.0198 -0.20082858 0.59400004 1.5211951e-38
0.020931428 -0.20082858 0.59400004 1.5030809e-38
0.022025717 -0.20049049 0.59300005 1.5491788e-38
0.023155238 -0.20049049 0.59300005 1.5768011e-38
0.024284763 -0.20049049 0.59300005 1.5860207e-38
0.025414288 -0.20049049 0.59300005 1.6043163e-38
0.026543811 -0.20049049 0.59300005 1.5121207e-38
0.027720002 -0.20082858 0.59400004 1.4752778e-38
0.028851431 -0.20082858 0.59400004 1.6781082e-38
0.030033335 -0.20116667 0.59500003 1.6966206e-38
0.031166669 -0.20116667 0.59500003 1.7058401e-38
0.032299999 -0.20116667 0.59500003 1.715023e-38
0.033489525 -0.20150477 0.59600002 1.7058034e-38
0.034566667 -0.20116667 0.59500003 1.6873646e-38
0.035700001 -0.20116667 0.59500003 1.7242428e-38
0.036833335 -0.20116667 0.59500003 1.7334621e-38
0.037966669 -0.20116667 0.59500003 1.7426817e-38
0.039165713 -0.20150477 0.59600002 1.7426814e-38
0.040300954 -0.20150477 0.59600002 1.751901e-38
0.041505717 -0.20184286 0.597 1.7611208e-38
0.042642858 -0.20184286 0.597 1.7519012e-38
0.043780003 -0.20184286 0.597 1.733534e-38
0.044992384 -0.20218097 0.59800005 1.7611927e-38
0.046131432 -0.20218097 0.59800005 1.751974e-38
0.047270477 -0.20218097 0.59800005 1.7427544e-38
0.048409529 -0.20218097 0.59800005 1.7611571e-38
0.049548574 -0.20218097 0.59800005 1.7611571e-38
0.050687622 -0.20218097 0.59800005 1.7611927e-38
0.051826671 -0.20218097 0.59800005 1.7611927e-38
0.052965719 -0.20218097 0.59800005 1.7611571e-38
0.05419524 -0.20251906 0.59900004 1.7611571e-38
0.055336196 -0.20251906 0.59900004 1.7611219e-38
0.056477144 -0.20251906 0.59900004 1.7611219e-38
0.0576181 -0.20251906 0.59900004 1.7703404e-38
0.058759049 -0.20251906 0.59900004 1.7703404e-38
0.060000002 -0.20285715 0.60000002 1.7611211e-38
0.061142862 -0.20285715 0.60000002 1.7611211e-38
0.062389527 -0.20319524 0.60100001 1.7519375e-38
0.063534282 -0.20319524 0.60100001 1.742718e-38
0.064679049 -0.20319524 0.60100001 1.7334988e-38
0.065933339 -0.20353335 0.60200006 1.7334988e-38
0.067191429 -0.20387144 0.60300004 1.7334984e-38
0.068453342 -0.20420954 0.60400003 1.7334984e-38
0.069603816 -0.20420954 0.60400003 1.7334984e-38
0.070988573 -0.20488572 0.60600001 1.7334984e-38
0.07238096 -0.20556192 0.60800004 1.7242788e-38
0.073660001 -0.2059 0.60900003 1.7334984e-38
0.074820004 -0.2059 0.60900003 1.7150597e-38
0.076104768 -0.20623809 0.61000001 1.7058401e-38
0.077266671 -0.20623809 0.61000001 1.6966206e-38
0.078557141 -0.20657618 0.611 1.6966206e-38
0.079720952 -0.20657618 0.611 1.6873646e-38
0.081017151 -0.20691429 0.61200005 1.678145e-38
0.082451433 -0.20759048 0.61400002 1.6597419e-38
0.083893336 -0.20826669 0.61600006 1.6505223e-38
0.085619047 -0.20961905 0.62 1.6135726e-38
0.086800002 -0.20961905 0.62 1.4476205e-38
-0.0071933335 -0.19532669 0.58100003 1.3187979e-38
-0.0060761911 -0.1949905 0.58000004 1.392375e-38
-0.0049628573 -0.1946543 0.57900006 1.4108141e-38
-0.0038600003 -0.1946543 0.57900006 1.4107761e-38
-0.0027285714 -0.19263715 0.57300001 1.4199957e-38
-0.0016257142 -0.19129238 0.56900001 1.4199618e-38
-0.00054190477 -0.19129238 0.56900001 1.4844987e-38
0.00054190477 -0.19129238 0.56900001 1.4845702e-38
0.0016257142 -0.19129238 0.56900001 1.5398876e-38
0.0027095238 -0.19129238 0.56900001 1.5582894e-38
0.0037933334 -0.19129238 0.56900001 1.5582894e-38
0.0048685712 -0.19095621 0.56800002 1.5582541e-38
0.005950476 -0.19095621 0.56800002 1.5490346e-38
0.0070200004 -0.19062002 0.56700003 1.5582192e-38
0.0081000002 -0.19062002 0.56700003 1.5858779e-38
0.009180001 -0.19062002 0.56700003 1.5859139e-38
0.010241905 -0.19028382 0.56600004 1.6504509e-38
0.011299999 -0.18994761 0.565 1.6780721e-38
0.01237619 -0.18994761 0.565 1.8163656e-38
0.013428572 -0.18961143 0.56400001 1.7518284e-38
0.014451429 -0.18893906 0.56200004 1.3000698e-38
0.015521904 -0.18893906 0.56200004 1.2170235e-38
0.016592382 -0.18893906 0.56200004 1.29078e-38
0.018668571 -0.19969717 0.59400004 1.3460597e-38
0.0198 -0.19969717 0.59400004 1.4751336e-38
0.020931428 -0.19969717 0.59400004 1.5305942e-38
0.022025717 -0.19936098 0.59300005 1.5490333e-38
0.023155238 -0.19936098 0.59300005 1.5397431e-38
0.024284763 -0.19936098 0.59300005 1.5028649e-38
0.025414288 -0.19936098 0.59300005 1.4752441e-38
0.026543811 -0.19936098 0.59300005 1.4475855e-38
0.027720002 -0.19969717 0.59400004 1.4661681e-38
0.028900001 -0.20003334 0.59500003 1.6966571e-38
0.030033335 -0.20003334 0.59500003 1.7241707e-38
0.03121905 -0.20036952 0.59600002 1.7333902e-38
0.032354284 -0.20036952 0.59600002 1.7149511e-38
0.033545714 -0.20070571 0.597 1.7149511e-38
0.034682855 -0.20070571 0.597 1.7057683e-38
0.03582 -0.20070571 0.597 1.7242074e-38
0.036895238 -0.20036952 0.59600002 1.7334618e-38
0.038030475 -0.20036952 0.59600002 1.7334618e-38
0.039231431 -0.20070571 0.597 1.742682e-38
0.040368572 -0.20070571 0.597 1.7519015e-38
0.041505717 -0.20070571 0.597 1.7519015e-38
0.042642858 -0.20070571 0.597 1.7611211e-38
0.043780003 -0.20070571 0.597 1.7611927e-38
0.044992384 -0.20104192 0.59800005 1.7611927e-38
0.046131432 -0.20104192 0.59800005 1.7703415e-38
0.047270477 -0.20104192 0.59800005 1.7611219e-38
0.048409529 -0.20104192 0.59800005 1.7519375e-38
0.049548574 -0.20104192 0.59800005 1.7519375e-38
0.050687622 -0.20104192 0.59800005 1.7519375e-38
0.051826671 -0.20104192 0.59800005 1.7519375e-38
0.053054288 -0.20137809 0.59900004 1.7611211e-38
0.05419524 -0.20137809 0.59900004 1.7703406e-38
0.055336196 -0.20137809 0.59900004 1.7611571e-38
0.056571428 -0.20171429 0.60000002 1.7519375e-38
0.057714287 -0.20171429 0.60000002 1.751901e-38
0.058857147 -0.20171429 0.60000002 1.7611205e-38
0.0601 -0.20205048 0.60100001 1.7611208e-38
0.06124476 -0.20205048 0.60100001 1.7611208e-38
0.062389527 -0.20205048 0.60100001 1.7611211e-38
0.063640006 -0.20238669 0.60200006 1.7611211e-38
0.064786673 -0.20238669 0.60200006 1.7427184e-38
0.065933339 -0.20238669 0.60200006 1.7427184e-38
0.06730286 -0.20305905 0.60400003 1.742682e-38
0.068453342 -0.20305905 0.60400003 1.742682e-38
0.069834292 -0.20373143 0.60600001 1.7334984e-38
0.070988573 -0.20373143 0.60600001 1.7242788e-38
0.07238096 -0.20440382 0.60800004 1.7150597e-38
0.073660001 -0.20474 0.60900003 1.7150597e-38
0.074820004 -0.20474 0.60900003 1.7058401e-38
0.076104768 -0.20507619 0.61000001 1.7058401e-38
0.077266671 -0.20507619 0.61000001 1.7058037e-38
0.078557141 -0.20541237 0.611 1.7058037e-38
0.079720952 -0.20541237 0.611 1.6689263e-38
0.081017151 -0.20574857 0.61200005 1.6689263e-38
0.082451433 -0.20642096 0.61400002 1.6689263e-38
0.084301911 -0.20810191 0.61900002 1.6136089e-38
0.085619047 -0.2084381 0.62 1.586021e-38
0.086800002 -0.2084381 0.62 1.438508e-38
-0.0071933335 -0.19422001 0.58100003 1.3372018e-38
-0.0060761911 -0.19388573 0.58000004 1.392375e-38
-0.0049628573 -0.19355145 0.57900006 1.4108141e-38
-0.0038600003 -0.19355145 0.57900006 1.42918e-38
-0.0027285714 -0.19154571 0.57300001 1.42918e-38
-0.0016257142 -0.19020858 0.56900001 1.4292168e-38
-0.00054190477 -0.19020858 0.56900001 1.4845342e-38
0.00054190477 -0.19020858 0.56900001 1.4753862e-38
0.0016257142 -0.19020858 0.56900001 1.5214841e-38
0.0027095238 -0.19020858 0.56900001 1.5215191e-38
0.0037933334 -0.19020858 0.56900001 1.5491778e-38
0.0048685712 -0.18987429 0.56800002 1.5674374e-38
0.005950476 -0.18987429 0.56800002 1.5582178e-38
0.0070200004 -0.18954001 0.56700003 1.548963e-38
0.0081000002 -0.18954001 0.56700003 1.5950608e-38
0.009180001 -0.18954001 0.56700003 1.5858772e-38
0.010241905 -0.18920572 0.56600004 1.6411946e-38
0.011299999 -0.18887143 0.565 1.6596693e-38
0.01237619 -0.18887143 0.565 1.7795236e-38
0.013428572 -0.18853715 0.56400001 1.7334988e-38
0.014451429 -0.18786858 0.56200004 1.3093989e-38
0.015521904 -0.18786858 0.56200004 1.1894e-38
0.017714286 -0.20057143 0.60000002 1.2631565e-38
0.018857144 -0.20057143 0.60000002 1.3275117e-38
0.019866668 -0.19923428 0.59600002 1.447366e-38
0.020966668 -0.19890001 0.59500003 1.42918e-38
0.022062859 -0.19856574 0.59400004 1.4383995e-38
0.023194287 -0.19856574 0.59400004 1.4935001e-38
0.024325715 -0.19856574 0.59400004 1.4474023e-38
0.025457144 -0.19856574 0.59400004 1.373828e-38
0.026633335 -0.19890001 0.59500003 1.5121214e-38
0.027860001 -0.19956857 0.597 1.586021e-38
0.029094286 -0.20023715 0.59900004 1.6966557e-38
0.030184764 -0.19990286 0.59800005 1.7149511e-38
0.031271428 -0.19956857 0.597 1.7149511e-38
0.032408569 -0.19956857 0.597 1.6597419e-38
0.033545714 -0.19956857 0.597 1.6966202e-38
0.034682855 -0.19956857 0.597 1.7333902e-38
0.03582 -0.19956857 0.597 1.7333902e-38
0.036957141 -0.19956857 0.597 1.7334618e-38
0.038094286 -0.19956857 0.597 1.7334618e-38
0.039231431 -0.19956857 0.597 1.7334624e-38
0.040368572 -0.19956857 0.597 1.742682e-38
0.041505717 -0.19956857 0.597 1.7150597e-38
0.042642858 -0.19956857 0.597 1.7611575e-38
0.043780003 -0.19956857 0.597 1.7611927e-38
0.044992384 -0.19990286 0.59800005 1.7611927e-38
0.046131432 -0.19990286 0.59800005 1.7611571e-38
0.047270477 -0.19990286 0.59800005 1.7611571e-38
0.048409529 -0.19990286 0.59800005 1.7519375e-38
0.049548574 -0.19990286 0.59800005 1.7519375e-38
0.050772384 -0.20023715 0.59900004 1.7611211e-38
0.051913336 -0.20023715 0.59900004 1.7611211e-38
0.053054288 -0.20023715 0.59900004 1.7703406e-38
0.054285716 -0.20057143 0.60000002 1.7795602e-38
0.055428572 -0.20057143 0.60000002 1.7703406e-38
0.056571428 -0.20057143 0.60000002 1.7611211e-38
0.057714287 -0.20057143 0.60000002 1.7519728e-38
0.058857147 -0.20057143 0.60000002 1.7519728e-38
0.0601 -0.20090571 0.60100001 1.7611208e-38
0.06124476 -0.20090571 0.60100001 1.7703404e-38
0.062389527 -0.20090571 0.60100001 1.7519015e-38
0.063640006 -0.20124002 0.60200006 1.7519015e-38
0.064786673 -0.20124002 0.60200006 1.7519015e-38
0.066042863 -0.2015743 0.60300004 1.7519015e-38
0.06730286 -0.20190859 0.60400003 1.7519012e-38
0.068679996 -0.20257714 0.60600001 1.7519012e-38
0.069834292 -0.20257714 0.60600001 1.733534e-38
0.071105719 -0.20291145 0.60700005 1.733534e-38
0.07238096 -0.20324573 0.60800004 1.7150597e-38
0.073660001 -0.20358001 0.60900003 1.7150597e-38
0.074820004 -0.20358001 0.60900003 1.7058401e-38
0.076104768 -0.20391428 0.61000001 1.7058401e-38
0.077393331 -0.20424856 0.611 1.7058037e-38
0.078557141 -0.20424856 0.611 1.6965841e-38
0.079851434 -0.20458287 0.61200005 1.6505228e-38
0.081149533 -0.20491715 0.61300004 1.6597423e-38
0.082720011 -0.20592001 0.61600006 1.6597419e-38
0.084301911 -0.20692287 0.61900002 1.6136441e-38
0.085619047 -0.20725714 0.62 1.5491439e-38
0.086800002 -0.20725714 0.62 1.4292895e-38
-0.0060866671 -0.19311334 0.58100003 1.3831554e-38
-0.0049800002 -0.19311334 0.58100003 1.4108141e-38
-0.0038600003 -0.19244859 0.57900006 1.4291446e-38
-0.002757143 -0.19244859 0.57900006 1.4291446e-38
-0.0016542859 -0.19244859 0.57900006 1.4291449e-38
-0.00054285716 -0.18945716 0.57000005 1.4660232e-38
0.00054190477 -0.18912476 0.56900001 1.4936803e-38
0.0016257142 -0.18912476 0.56900001 1.521339e-38
0.0027095238 -0.18912476 0.56900001 1.558145e-38
0.0037933334 -0.18912476 0.56900001 1.5858036e-38
0.0048685712 -0.18879239 0.56800002 1.5765488e-38
0.005950476 -0.18879239 0.56800002 1.5673292e-38
0.0070323814 -0.18879239 0.56800002 1.5581825e-38
0.0081000002 -0.18846001 0.56700003 1.6134999e-38
0.009180001 -0.18846001 0.56700003 1.5950968e-38
0.010241905 -0.18812762 0.56600004 1.631975e-38
0.011299999 -0.18779524 0.565 1.6504498e-38
0.01237619 -0.18779524 0.565 1.7887432e-38
0.013428572 -0.18746285 0.56400001 1.7610492e-38
0.014451429 -0.18679811 0.56200004 1.3738275e-38
0.015521904 -0.18679811 0.56200004 1.1709983e-38
0.017714286 -0.19942857 0.60000002 1.2078765e-38
0.018857144 -0.19942857 0.60000002 1.2353889e-38
0.02 -0.19942857 0.60000002 1.2630476e-38
0.021142857 -0.19942857 0.60000002 1.2539013e-38
0.022285715 -0.19942857 0.60000002 1.28156e-38
0.023428572 -0.19942857 0.60000002 1.2999975e-38
0.02457143 -0.19942857 0.60000002 1.3829735e-38
0.025714288 -0.19942857 0.60000002 1.3922328e-38
0.026857143 -0.19942857 0.60000002 1.6596001e-38
0.027953334 -0.1990962 0.59900004 1.6965839e-38
0.029094286 -0.1990962 0.59900004 1.7058034e-38
0.030184764 -0.19876382 0.59800005 1.7057671e-38
0.031271428 -0.19843142 0.597 1.7334258e-38
0.032408569 -0.19843142 0.597 1.696549e-38
0.033601906 -0.19876382 0.59800005 1.7242077e-38
0.034682855 -0.19843142 0.597 1.7241707e-38
0.03582 -0.19843142 0.597 1.7333902e-38
0.036957141 -0.19843142 0.597 1.7333909e-38
0.038094286 -0.19843142 0.597 1.7426105e-38
0.039231431 -0.19843142 0.597 1.7334269e-38
0.040436193 -0.19876382 0.59800005 1.7610856e-38
0.041575242 -0.19876382 0.59800005 1.7611571e-38
0.042714287 -0.19876382 0.59800005 1.7795962e-38
0.043853339 -0.19876382 0.59800005 1.7611205e-38
0.04506762 -0.1990962 0.59900004 1.751901e-38
0.046208575 -0.1990962 0.59900004 1.7519012e-38
0.047349527 -0.1990962 0.59900004 1.7887795e-38
0.04857143 -0.19942857 0.60000002 1.7610856e-38
0.049714286 -0.19942857 0.60000002 1.7518661e-38
0.050857145 -0.19942857 0.60000002 1.7519375e-38
0.052000001 -0.19942857 0.60000002 1.7519375e-38
0.053142861 -0.19942857 0.60000002 1.7610859e-38
0.054285716 -0.19942857 0.60000002 1.7703055e-38
0.055428572 -0.19942857 0.60000002 1.7611211e-38
0.056571428 -0.19942857 0.60000002 1.7611211e-38
0.057714287 -0.19942857 0.60000002 1.7519731e-38
0.058857147 -0.19942857 0.60000002 1.7519731e-38
0.0601 -0.19976096 0.60100001 1.7611208e-38
0.06124476 -0.19976096 0.60100001 1.7611208e-38
0.062389527 -0.19976096 0.60100001 1.7611208e-38
0.063640006 -0.20009336 0.60200006 1.7519012e-38
0.064786673 -0.20009336 0.60200006 1.7519015e-38
0.066042863 -0.20042573 0.60300004 1.7519015e-38
0.067525715 -0.20142286 0.60600001 1.7518649e-38
0.068679996 -0.20142286 0.60600001 1.7610845e-38
0.069834292 -0.20142286 0.60600001 1.7426814e-38
0.071105719 -0.20175526 0.60700005 1.7334618e-38
0.07238096 -0.20208763 0.60800004 1.7150597e-38
0.073660001 -0.20242001 0.60900003 1.7242793e-38
0.074942857 -0.20275238 0.61000001 1.7149878e-38
0.076104768 -0.20275238 0.61000001 1.7057683e-38
0.077393331 -0.20308475 0.611 1.715023e-38
0.078685716 -0.20341715 0.61200005 1.7058034e-38
0.079851434 -0.20341715 0.61200005 1.6597423e-38
0.081546672 -0.20474669 0.61600006 1.6505228e-38
0.083122857 -0.20574382 0.61900002 1.6504858e-38
0.0844381 -0.20607619 0.62 1.6320466e-38
0.085619047 -0.20607619 0.62 1.5399972e-38
0.086800002 -0.20607619 0.62 1.3924842e-38
-0.00054285716 -0.18837145 0.57000005 1.4568033e-38
0.00054285716 -0.18837145 0.57000005 1.4843887e-38
0.0016285715 -0.18837145 0.57000005 1.5028279e-38
0.0027095238 -0.18804096 0.56900001 1.5212314e-38
0.0037933334 -0.18804096 0.56900001 1.5488901e-38
0.0048771431 -0.18804096 0.56900001 1.5581099e-38
0.005960952 -0.18804096 0.56900001 1.5581099e-38
0.0070323814 -0.18771048 0.56800002 1.5672942e-38
0.0081142858 -0.18771048 0.56800002 1.6041724e-38
0.0091961902 -0.18771048 0.56800002 1.5766216e-38
0.010260001 -0.18738 0.56700003 1.6227195e-38
0.011320001 -0.18704952 0.56600004 1.6412302e-38
0.01237619 -0.18671905 0.565 1.7703041e-38
0.013452381 -0.18671905 0.565 1.7334988e-38
0.014528572 -0.18671905 0.565 1.3647163e-38
0.01657143 -0.19828573 0.60000002 1.2999992e-38
0.017714286 -0.19828573 0.60000002 1.2354622e-38
0.018888572 -0.19861619 0.60100001 1.2169145e-38
0.020033333 -0.19861619 0.60100001 1.2630123e-38
0.021178095 -0.19861619 0.60100001 1.2447524e-38
0.022322858 -0.19861619 0.60100001 1.2908502e-38
0.023467619 -0.19861619 0.60100001 1.2908499e-38
0.02461238 -0.19861619 0.60100001 1.4014847e-38
0.025757143 -0.19861619 0.60100001 1.5765137e-38
0.026857143 -0.19828573 0.60000002 1.7424659e-38
0.028000001 -0.19828573 0.60000002 1.7242063e-38
0.029142857 -0.19828573 0.60000002 1.7149867e-38
0.03023524 -0.19795525 0.59900004 1.7057315e-38
0.031323813 -0.19762477 0.59800005 1.7149511e-38
0.032462858 -0.19762477 0.59800005 1.678145e-38
0.033601906 -0.19762477 0.59800005 1.7242428e-38
0.034740955 -0.19762477 0.59800005 1.7241707e-38
0.035880003 -0.19762477 0.59800005 1.7333902e-38
0.037019052 -0.19762477 0.59800005 1.7333905e-38
0.038158096 -0.19762477 0.59800005 1.7426101e-38
0.039297149 -0.19762477 0.59800005 1.7242428e-38
0.040436193 -0.19762477 0.59800005 1.7611211e-38
0.041575242 -0.19762477 0.59800005 1.7519375e-38
0.042714287 -0.19762477 0.59800005 1.7519375e-38
0.043926667 -0.19795525 0.59900004 1.751901e-38
0.04506762 -0.19795525 0.59900004 1.7426814e-38
0.046208575 -0.19795525 0.59900004 1.7518294e-38
0.047428574 -0.19828573 0.60000002 1.7887076e-38
0.04857143 -0.19828573 0.60000002 1.7611211e-38
0.049714286 -0.19828573 0.60000002 1.7611211e-38
0.050857145 -0.19828573 0.60000002 1.7611575e-38
0.052000001 -0.19828573 0.60000002 1.751938e-38
0.053142861 -0.19828573 0.60000002 1.7611219e-38
0.054376192 -0.19861619 0.60100001 1.7611219e-38
0.055520952 -0.19861619 0.60100001 1.7703406e-38
0.056665715 -0.19861619 0.60100001 1.7703406e-38
0.057810474 -0.19861619 0.60100001 1.7611571e-38
0.058955237 -0.19861619 0.60100001 1.7611571e-38
0.0601 -0.19861619 0.60100001 1.742718e-38
0.061346676 -0.19894667 0.60200006 1.7519375e-38
0.062493335 -0.19894667 0.60200006 1.7519375e-38
0.063640006 -0.19894667 0.60200006 1.7519375e-38
0.065001912 -0.19960763 0.60400003 1.7611208e-38
0.066152386 -0.19960763 0.60400003 1.7519012e-38
0.067525715 -0.20026857 0.60600001 1.7610845e-38
0.068793342 -0.20059906 0.60700005 1.7610845e-38
0.06994953 -0.20059906 0.60700005 1.7518294e-38
0.071222864 -0.20092954 0.60800004 1.7426098e-38
0.072499998 -0.20126002 0.60900003 1.7242788e-38
0.073660001 -0.20126002 0.60900003 1.7242788e-38
0.074942857 -0.20159048 0.61000001 1.7058397e-38
0.07622952 -0.20192094 0.611 1.6966202e-38
0.077520005 -0.20225143 0.61200005 1.7058034e-38
0.07881429 -0.20258191 0.61300004 1.7058034e-38
0.080242857 -0.20324285 0.61500001 1.6597419e-38
0.081811436 -0.2042343 0.61800003 1.6413028e-38
0.083122857 -0.20456477 0.61900002 1.6504858e-38
0.0844381 -0.20489523 0.62 1.6136075e-38
0.085619047 -0.20489523 0.62 1.5491441e-38
0.086940005 -0.20522572 0.62100005 1.4477289e-38
-0.00054380955 -0.18761429 0.57100004 1.4750988e-38
0.00054380955 -0.18761429 0.57100004 1.4751329e-38
0.0016285715 -0.18728574 0.57000005 1.493572e-38
0.0027142861 -0.18728574 0.57000005 1.5027928e-38
0.0037933334 -0.18695715 0.56900001 1.5304515e-38
0.0048771431 -0.18695715 0.56900001 1.5396708e-38
0.005960952 -0.18695715 0.56900001 1.5488904e-38
0.0070447619 -0.18695715 0.56900001 1.5304882e-38
0.0081285713 -0.18695715 0.56900001 1.5858056e-38
0.0092123812 -0.18695715 0.56900001 1.5766216e-38
0.010278095 -0.18662858 0.56800002 1.6227195e-38
0.01136 -0.18662858 0.56800002 1.6319387e-38
0.012420001 -0.18630001 0.56700003 1.7610126e-38
0.013500001 -0.18630001 0.56700003 1.7518284e-38
0.014580001 -0.18630001 0.56700003 1.4936806e-38
0.016599048 -0.19747142 0.60100001 1.3738302e-38
0.017743809 -0.19747142 0.60100001 1.3922693e-38
0.018888572 -0.19747142 0.60100001 1.4565882e-38
0.020066667 -0.19780001 0.60200006 1.4750274e-38
0.021213336 -0.19780001 0.60200006 1.530485e-38
0.022360003 -0.19780001 0.60200006 1.5673633e-38
0.023506669 -0.19780001 0.60200006 1.6227172e-38
0.024653334 -0.19780001 0.60200006 1.7149128e-38
0.025800001 -0.19780001 0.60200006 1.7149514e-38
0.026901904 -0.19747142 0.60100001 1.7241709e-38
0.028046668 -0.19747142 0.60100001 1.7057671e-38
0.029142857 -0.19714287 0.60000002 1.7057671e-38
0.03023524 -0.1968143 0.59900004 1.7057315e-38
0.031323813 -0.19648573 0.59800005 1.7057315e-38
0.032462858 -0.19648573 0.59800005 1.7149518e-38
0.033658098 -0.1968143 0.59900004 1.7426105e-38
0.034799047 -0.1968143 0.59900004 1.7333902e-38
0.035880003 -0.19648573 0.59800005 1.7610489e-38
0.037019052 -0.19648573 0.59800005 1.7334624e-38
0.038158096 -0.19648573 0.59800005 1.742682e-38
0.039362859 -0.1968143 0.59900004 1.7519012e-38
0.040503811 -0.1968143 0.59900004 1.7611208e-38
0.041644763 -0.1968143 0.59900004 1.7519012e-38
0.042785715 -0.1968143 0.59900004 1.7519012e-38
0.043926667 -0.1968143 0.59900004 1.751901e-38
0.045142859 -0.19714287 0.60000002 1.751901e-38
0.046285715 -0.19714287 0.60000002 1.7519015e-38
0.047428574 -0.19714287 0.60000002 1.7611211e-38
0.048652381 -0.19747142 0.60100001 1.7702688e-38
0.049797144 -0.19747142 0.60100001 1.7887079e-38
0.050941907 -0.19747142 0.60100001 1.7703406e-38
0.052086666 -0.19747142 0.60100001 1.7611211e-38
0.053231429 -0.19747142 0.60100001 1.770342e-38
0.054376192 -0.19747142 0.60100001 1.7611225e-38
0.055520952 -0.19747142 0.60100001 1.7703406e-38
0.056665715 -0.19747142 0.60100001 1.7703406e-38
0.057810474 -0.19747142 0.60100001 1.7611211e-38
0.058955237 -0.19747142 0.60100001 1.7703406e-38
0.060200006 -0.19780001 0.60200006 1.7610856e-38
0.061346676 -0.19780001 0.60200006 1.7610856e-38
0.062493335 -0.19780001 0.60200006 1.7519015e-38
0.063851431 -0.19845715 0.60400003 1.7519015e-38
0.065217145 -0.19911429 0.60600001 1.7519012e-38
0.066371433 -0.19911429 0.60600001 1.7611208e-38
0.067637146 -0.19944288 0.60700005 1.7518649e-38
0.068793342 -0.19944288 0.60700005 1.7518649e-38
0.070064768 -0.19977143 0.60800004 1.7426101e-38
0.071222864 -0.19977143 0.60800004 1.7426101e-38
0.072499998 -0.2001 0.60900003 1.7242425e-38
0.073660001 -0.2001 0.60900003 1.7242425e-38
0.075065717 -0.20075715 0.611 1.7333902e-38
0.07622952 -0.20075715 0.611 1.7057315e-38
0.077646673 -0.2014143 0.61300004 1.6873643e-38
0.078942858 -0.20174286 0.61400002 1.6873643e-38
0.080634288 -0.20305714 0.61800003 1.6689255e-38
0.081811436 -0.20305714 0.61800003 1.6504863e-38
0.083257139 -0.2037143 0.62 1.6320469e-38
0.0844381 -0.2037143 0.62 1.5859491e-38
0.085757144 -0.20404287 0.62100005 1.5491085e-38
0.086940005 -0.20404287 0.62100005 1.4569129e-38
-0.00054476195 -0.18685335 0.57200003 1.4474038e-38
0.00054380955 -0.18652667 0.57100004 1.4382193e-38
0.0016314286 -0.18652667 0.57100004 1.5027563e-38
0.0027142861 -0.18620002 0.57000005 1.502756e-38
0.0038000003 -0.18620002 0.57000005 1.5304147e-38
0.004885715 -0.18620002 0.57000005 1.5303794e-38
0.0059714289 -0.18620002 0.57000005 1.5395989e-38
0.0070571434 -0.18620002 0.57000005 1.5304515e-38
0.0081428578 -0.18620002 0.57000005 1.5857689e-38
0.0092285722 -0.18620002 0.57000005 1.5674018e-38
0.01029619 -0.18587334 0.56900001 1.6042801e-38
0.01138 -0.18587334 0.56900001 1.604388e-38
0.012441905 -0.18554667 0.56800002 1.7426814e-38
0.013523811 -0.18554667 0.56800002 1.7518294e-38
0.014631429 -0.18587334 0.56900001 1.484462e-38
0.016599048 -0.19632667 0.60100001 1.4750985e-38
0.017743809 -0.19632667 0.60100001 1.465879e-38
0.018920001 -0.19665335 0.60200006 1.5025782e-38
0.020066667 -0.19665335 0.60200006 1.5302368e-38
0.021248572 -0.19698001 0.60300004 1.5672582e-38
0.022397144 -0.19698001 0.60300004 1.6502342e-38
0.023506669 -0.19665335 0.60200006 1.6135715e-38
0.024653334 -0.19665335 0.60200006 1.6965476e-38
0.025800001 -0.19665335 0.60200006 1.6966206e-38
0.026901904 -0.19632667 0.60100001 1.7058401e-38
0.028046668 -0.19632667 0.60100001 1.7149511e-38
0.029191429 -0.19632667 0.60100001 1.7149511e-38
0.030285714 -0.19599999 0.60000002 1.7241346e-38
0.031376194 -0.19567335 0.59900004 1.7241346e-38
0.032517143 -0.19567335 0.59900004 1.7241707e-38
0.033658098 -0.19567335 0.59900004 1.7241707e-38
0.034799047 -0.19567335 0.59900004 1.678145e-38
0.035880003 -0.19534668 0.59800005 1.7334624e-38
0.037019052 -0.19534668 0.59800005 1.7242074e-38
0.038158096 -0.19534668 0.59800005 1.7426465e-38
0.039362859 -0.19567335 0.59900004 1.7519015e-38
0.040503811 -0.19567335 0.59900004 1.7611211e-38
0.041644763 -0.19567335 0.59900004 1.7519012e-38
0.042785715 -0.19567335 0.59900004 1.7519012e-38
0.043926667 -0.19567335 0.59900004 1.7611208e-38
0.045142859 -0.19599999 0.60000002 1.7519012e-38
0.046362858 -0.19632667 0.60100001 1.7519015e-38
0.047507618 -0.19632667 0.60100001 1.7611211e-38
0.048652381 -0.19632667 0.60100001 1.7702688e-38
0.049797144 -0.19632667 0.60100001 1.7887079e-38
0.050941907 -0.19632667 0.60100001 1.7611211e-38
0.052086666 -0.19632667 0.60100001 1.7611211e-38
0.053231429 -0.19632667 0.60100001 1.7703055e-38
0.054466672 -0.19665335 0.60200006 1.7610859e-38
0.055613339 -0.19665335 0.60200006 1.7703406e-38
0.056760006 -0.19665335 0.60200006 1.7703406e-38
0.057906672 -0.19665335 0.60200006 1.7611205e-38
0.059053335 -0.19665335 0.60200006 1.7703401e-38
0.060300004 -0.19698001 0.60300004 1.7611219e-38
0.061448574 -0.19698001 0.60300004 1.7519024e-38
0.062597148 -0.19698001 0.60300004 1.742718e-38
0.064062856 -0.19796 0.60600001 1.742718e-38
0.065324761 -0.19828668 0.60700005 1.7334984e-38
0.066480957 -0.19828668 0.60700005 1.7334984e-38
0.067748569 -0.19861333 0.60800004 1.7518294e-38
0.068906672 -0.19861333 0.60800004 1.7518294e-38
0.070179999 -0.19894001 0.60900003 1.7426465e-38
0.071340002 -0.19894001 0.60900003 1.7334269e-38
0.072499998 -0.19894001 0.60900003 1.7334258e-38
0.073780954 -0.19926667 0.61000001 1.7426454e-38
0.075065717 -0.19959334 0.611 1.715023e-38
0.076354288 -0.19992001 0.61200005 1.6965839e-38
0.077773333 -0.20057334 0.61400002 1.6965476e-38
0.079071432 -0.2009 0.61500001 1.6965476e-38
0.080634288 -0.20188001 0.61800003 1.6689971e-38
0.08194381 -0.20220667 0.61900002 1.6505579e-38
0.083257139 -0.20253333 0.62 1.6412662e-38
0.084574297 -0.20286001 0.62100005 1.5859488e-38
0.085757144 -0.20286001 0.62100005 1.5675463e-38
0.086940005 -0.20286001 0.62100005 1.5214485e-38
-0.00054476195 -0.18576381 0.57200003 1.401486e-38
0.00054476195 -0.18576381 0.57200003 1.4290363e-38
0.0016342858 -0.18576381 0.57200003 1.5027928e-38
0.0027190479 -0.18543907 0.57100004 1.5027913e-38
0.0038066669 -0.18543907 0.57100004 1.5120109e-38
0.0048942859 -0.18543907 0.57100004 1.5304149e-38
0.0059714289 -0.18511429 0.57000005 1.5396345e-38
0.0070571434 -0.18511429 0.57000005 1.5304512e-38
0.0081428578 -0.18511429 0.57000005 1.5673295e-38
0.0092285722 -0.18511429 0.57000005 1.5582178e-38
0.010314287 -0.18511429 0.57000005 1.6043156e-38
0.01138 -0.18478952 0.56900001 1.6134996e-38
0.012463809 -0.18478952 0.56900001 1.7425735e-38
0.013547619 -0.18478952 0.56900001 1.7518284e-38
0.014631429 -0.18478952 0.56900001 1.5674371e-38
0.016626669 -0.19550668 0.60200006 1.4845706e-38
0.017773336 -0.19550668 0.60200006 1.5306684e-38
0.018920001 -0.19550668 0.60200006 1.5949531e-38
0.020066667 -0.19550668 0.60200006 1.6226118e-38
0.021248572 -0.19583145 0.60300004 1.6135366e-38
0.022397144 -0.19583145 0.60300004 1.6965127e-38
0.023506669 -0.19550668 0.60200006 1.6780728e-38
0.024653334 -0.19550668 0.60200006 1.6780728e-38
0.025800001 -0.19550668 0.60200006 1.6689619e-38
0.026946669 -0.19550668 0.60200006 1.7058401e-38
0.028046668 -0.19518191 0.60100001 1.7149511e-38
0.029191429 -0.19518191 0.60100001 1.7149511e-38
0.030285714 -0.19485715 0.60000002 1.7149511e-38
0.031428572 -0.19485715 0.60000002 1.7149511e-38
0.032571428 -0.19485715 0.60000002 1.7334258e-38
0.033658098 -0.19453239 0.59900004 1.7334258e-38
0.034799047 -0.19453239 0.59900004 1.7242428e-38
0.035940003 -0.19453239 0.59900004 1.7519015e-38
0.037019052 -0.19420762 0.59800005 1.7426465e-38
0.038158096 -0.19420762 0.59800005 1.7334269e-38
0.039362859 -0.19453239 0.59900004 1.7334269e-38
0.040503811 -0.19453239 0.59900004 1.7426465e-38
0.041644763 -0.19453239 0.59900004 1.7518649e-38
0.042785715 -0.19453239 0.59900004 1.7518649e-38
0.044 -0.19485715 0.60000002 1.7610492e-38
0.045218095 -0.19518191 0.60100001 1.7610492e-38
0.046362858 -0.19518191 0.60100001 1.7519015e-38
0.047507618 -0.19518191 0.60100001 1.7519015e-38
0.048652381 -0.19518191 0.60100001 1.7610492e-38
0.049797144 -0.19518191 0.60100001 1.7794883e-38
0.050941907 -0.19518191 0.60100001 1.7702688e-38
0.052086666 -0.19518191 0.60100001 1.7702688e-38
0.053320002 -0.19550668 0.60200006 1.7611211e-38
0.054466672 -0.19550668 0.60200006 1.7611211e-38
0.055613339 -0.19550668 0.60200006 1.7703406e-38
0.056854293 -0.19583145 0.60300004 1.7703406e-38
0.058002859 -0.19583145 0.60300004 1.7611561e-38
0.059151433 -0.19583145 0.60300004 1.7795952e-38
0.060400002 -0.19615619 0.60400003 1.7887443e-38
0.061550479 -0.19615619 0.60400003 1.7610856e-38
0.062700957 -0.19615619 0.60400003 1.7519015e-38
0.064062856 -0.19680572 0.60600001 1.7519015e-38
0.065324761 -0.19713049 0.60700005 1.742682e-38
0.066480957 -0.19713049 0.60700005 1.742682e-38
0.067748569 -0.19745526 0.60800004 1.7517933e-38
0.068906672 -0.19745526 0.60800004 1.7610129e-38
0.070179999 -0.19778 0.60900003 1.7426468e-38
0.071340002 -0.19778 0.60900003 1.7242077e-38
0.072619043 -0.19810477 0.61000001 1.72417e-38
0.073780954 -0.19810477 0.61000001 1.7333895e-38
0.07531143 -0.19907905 0.61300004 1.7333539e-38
0.076479048 -0.19907905 0.61300004 1.7241344e-38
0.0779 -0.19972856 0.61500001 1.7149867e-38
0.079200007 -0.20005335 0.61600006 1.6965476e-38
0.080764763 -0.20102763 0.61900002 1.6689971e-38
0.08194381 -0.20102763 0.61900002 1.6505579e-38
0.083391435 -0.20167716 0.62100005 1.6321188e-38
0.084574297 -0.20167716 0.62100005 1.5675819e-38
0.085757144 -0.20167716 0.62100005 1.521592e-38
0.087080002 -0.20200193 0.62200004 1.5123724e-38
0.00054571428 -0.18499716 0.57300001 1.429036e-38
0.001637143 -0.18499716 0.57300001 1.4474752e-38
0.0027285714 -0.18499716 0.57300001 1.4658417e-38
0.0038133336 -0.18467429 0.57200003 1.50272e-38
0.0049028574 -0.18467429 0.57200003 1.5120121e-38
0.0059819054 -0.18435144 0.57100004 1.5120121e-38
0.0070695239 -0.18435144 0.57100004 1.530451e-38
0.0081571434 -0.18435144 0.57100004 1.5581096e-38
0.0092447624 -0.18435144 0.57100004 1.5489257e-38
0.010332381 -0.18435144 0.57100004 1.5673648e-38
0.011400001 -0.18402858 0.57000005 1.5950961e-38
0.012485716 -0.18402858 0.57000005 1.72417e-38
0.013571429 -0.18402858 0.57000005 1.7241707e-38
0.014657144 -0.18402858 0.57000005 1.5674381e-38
0.016626669 -0.19436002 0.60200006 1.4753874e-38
0.017773336 -0.19436002 0.60200006 1.5307047e-38
0.018951431 -0.19468288 0.60300004 1.5674751e-38
0.020100001 -0.19468288 0.60300004 1.5859142e-38
0.021248572 -0.19468288 0.60300004 1.5767307e-38
0.022397144 -0.19468288 0.60300004 1.6597067e-38
0.023545716 -0.19468288 0.60300004 1.6597775e-38
0.024694288 -0.19468288 0.60300004 1.6597775e-38
0.025800001 -0.19436002 0.60200006 1.6505223e-38
0.026946669 -0.19436002 0.60200006 1.6966202e-38
0.028093336 -0.19436002 0.60200006 1.7058034e-38
0.029191429 -0.19403714 0.60100001 1.7058034e-38
0.03033619 -0.19403714 0.60100001 1.7149511e-38
0.031428572 -0.19371429 0.60000002 1.7149511e-38
0.032571428 -0.19371429 0.60000002 1.715023e-38
0.033714287 -0.19371429 0.60000002 1.7426817e-38
0.034799047 -0.19339144 0.59900004 1.7426817e-38
0.035940003 -0.19339144 0.59900004 1.7519012e-38
0.037080955 -0.19339144 0.59900004 1.7519015e-38
0.038221907 -0.19339144 0.59900004 1.742682e-38
0.039362859 -0.19339144 0.59900004 1.7426098e-38
0.040503811 -0.19339144 0.59900004 1.7610489e-38
0.041714288 -0.19371429 0.60000002 1.7610845e-38
0.042857144 -0.19371429 0.60000002 1.7703041e-38
0.044 -0.19371429 0.60000002 1.7701969e-38
0.045218095 -0.19403714 0.60100001 1.7701969e-38
0.046362858 -0.19403714 0.60100001 1.7519015e-38
0.047507618 -0.19403714 0.60100001 1.7703406e-38
0.048652381 -0.19403714 0.60100001 1.7703757e-38
0.049880005 -0.19436002 0.60200006 1.7703757e-38
0.051026672 -0.19436002 0.60200006 1.7611211e-38
0.052173339 -0.19436002 0.60200006 1.7703406e-38
0.053320002 -0.19436002 0.60200006 1.7703406e-38
0.054557145 -0.19468288 0.60300004 1.7703406e-38
0.055705719 -0.19468288 0.60300004 1.7703406e-38
0.056854293 -0.19468288 0.60300004 1.7795602e-38
0.05809905 -0.19500573 0.60400003 1.7703401e-38
0.059249524 -0.19500573 0.60400003 1.7795596e-38
0.060400002 -0.19500573 0.60400003 1.7795602e-38
0.061550479 -0.19500573 0.60400003 1.7703406e-38
0.062700957 -0.19500573 0.60400003 1.7519012e-38
0.06416858 -0.19597431 0.60700005 1.7519012e-38
0.065324761 -0.19597431 0.60700005 1.7426098e-38
0.066480957 -0.19597431 0.60700005 1.7426098e-38
0.067748569 -0.19629715 0.60800004 1.7149151e-38
0.068906672 -0.19629715 0.60800004 1.7425738e-38
0.070295244 -0.19694287 0.61000001 1.7518296e-38
0.07145714 -0.19694287 0.61000001 1.7333905e-38
0.072619043 -0.19694287 0.61000001 1.7333539e-38
0.074022859 -0.19758859 0.61200005 1.7333539e-38
0.07531143 -0.19791143 0.61300004 1.7333542e-38
0.076603815 -0.19823429 0.61400002 1.7333542e-38
0.0779 -0.19855714 0.61500001 1.7241346e-38
0.079200007 -0.19888002 0.61600006 1.7056955e-38
0.080764763 -0.19984858 0.61900002 1.6689615e-38
0.08194381 -0.19984858 0.61900002 1.6505223e-38
0.083391435 -0.20049429 0.62100005 1.650486e-38
0.084574297 -0.20049429 0.62100005 1.5490709e-38
0.085757144 -0.20049429 0.62100005 1.475385e-38
0.087080002 -0.20081715 0.62200004 1.5491415e-38
-0.00054857146 -0.18486859 0.57600003 1.4198168e-38
0.00054666668 -0.18422666 0.574 1.4198162e-38
0.00164 -0.18422666 0.574 1.4290358e-38
0.0027285714 -0.18390571 0.57300001 1.4473317e-38
0.0038200002 -0.18390571 0.57300001 1.4749904e-38
0.0049028574 -0.18358476 0.57200003 1.4750625e-38
0.0059923814 -0.18358476 0.57200003 1.4842821e-38
0.0070695239 -0.18326382 0.57100004 1.5212304e-38
0.0081571434 -0.18326382 0.57100004 1.5488891e-38
0.0092447624 -0.18326382 0.57100004 1.5305213e-38
0.010332381 -0.18326382 0.57100004 1.55818e-38
0.011400001 -0.18294287 0.57000005 1.5858765e-38
0.012485716 -0.18294287 0.57000005 1.6965113e-38
0.013571429 -0.18294287 0.57000005 1.6965113e-38
0.014682857 -0.18326382 0.57100004 1.6135352e-38
0.016654287 -0.1935343 0.60300004 1.5213785e-38
0.017802857 -0.1935343 0.60300004 1.5490372e-38
0.018951431 -0.1935343 0.60300004 1.5674751e-38
0.020100001 -0.1935343 0.60300004 1.6135729e-38
0.021248572 -0.1935343 0.60300004 1.5859502e-38
0.022397144 -0.1935343 0.60300004 1.6412676e-38
0.023545716 -0.1935343 0.60300004 1.6413384e-38
0.024694288 -0.1935343 0.60300004 1.6966557e-38
0.025800001 -0.19321336 0.60200006 1.7057668e-38
0.026946669 -0.19321336 0.60200006 1.7334255e-38
0.028093336 -0.19321336 0.60200006 1.724206e-38
0.029191429 -0.19289239 0.60100001 1.6965473e-38
0.03033619 -0.19289239 0.60100001 1.696512e-38
0.031428572 -0.19257143 0.60000002 1.7057315e-38
0.032571428 -0.19257143 0.60000002 1.7057683e-38
0.033714287 -0.19257143 0.60000002 1.7426465e-38
0.034857146 -0.19257143 0.60000002 1.7426454e-38
0.035940003 -0.19225048 0.59900004 1.7334258e-38
0.037080955 -0.19225048 0.59900004 1.7426105e-38
0.038285714 -0.19257143 0.60000002 1.7518301e-38
0.039428573 -0.19257143 0.60000002 1.7610842e-38
0.040571429 -0.19257143 0.60000002 1.7703038e-38
0.041714288 -0.19257143 0.60000002 1.7610845e-38
0.042857144 -0.19257143 0.60000002 1.7703041e-38
0.044 -0.19257143 0.60000002 1.7794887e-38
0.045218095 -0.19289239 0.60100001 1.7610496e-38
0.046362858 -0.19289239 0.60100001 1.7519015e-38
0.047586668 -0.19321336 0.60200006 1.7795602e-38
0.048733339 -0.19321336 0.60200006 1.7795587e-38
0.049880005 -0.19321336 0.60200006 1.7979978e-38
0.051026672 -0.19321336 0.60200006 1.7703401e-38
0.052173339 -0.19321336 0.60200006 1.7611205e-38
0.053408574 -0.1935343 0.60300004 1.7703406e-38
0.054557145 -0.1935343 0.60300004 1.7703406e-38
0.055798095 -0.19385524 0.60400003 1.779525e-38
0.056948572 -0.19385524 0.60400003 1.779525e-38
0.05809905 -0.19385524 0.60400003 1.7703404e-38
0.059249524 -0.19385524 0.60400003 1.7611208e-38
0.060400002 -0.19385524 0.60400003 1.7519375e-38
0.061550479 -0.19385524 0.60400003 1.7519375e-38
0.062908575 -0.19449714 0.60600001 1.751901e-38
0.06416858 -0.19481811 0.60700005 1.751901e-38
0.065324761 -0.19481811 0.60700005 1.7426101e-38
0.066590481 -0.19513905 0.60800004 1.7518296e-38
