# .PCD v0.7 - Point Cloud Data file format
VERSION 0.7
FIELDS x y z rgb
SIZE 4 4 4 4
TYPE F F F F
COUNT 1 1 1 1
WIDTH 993
HEIGHT 1
VIEWPOINT 0 0 0 1 0 0 0
POINTS 993
DATA ascii
0.074047625 -0.16882858 0.62200004 1.6595977e-38
0.075353332 -0.1691 0.62300003 1.6595977e-38
0.076662861 -0.16937143 0.62400001 1.6504132e-38
0.078225717 -0.17018571 0.62700003 1.6411936e-38
0.079420008 -0.17018571 0.62700003 1.6227548e-38
0.080742866 -0.17045715 0.62800002 1.6043156e-38
0.08233048 -0.17127143 0.63100004 1.5583254e-38
0.083664767 -0.17154287 0.63200003 1.5030081e-38
-0.015285715 -0.1730343 0.64200002 2.0100112e-38
-0.014062857 -0.1730343 0.64200002 1.7059496e-38
-0.01284 -0.1730343 0.64200002 1.2818497e-38
-0.011617143 -0.1730343 0.64200002 1.1158924e-38
-0.010394286 -0.1730343 0.64200002 1.4016988e-38
-0.0091714282 -0.1730343 0.64200002 1.7330257e-38
-0.0079485718 -0.1730343 0.64200002 1.8436605e-38
-0.0067257145 -0.1730343 0.64200002 1.8991609e-38
-0.0054942858 -0.17276478 0.64100003 1.9268196e-38
-0.0042666672 -0.17249525 0.64000005 1.908453e-38
-0.0030333335 -0.17168668 0.63700002 1.6042075e-38
-0.0018114285 -0.1708781 0.634 1.5027916e-38
-0.00060190476 -0.17033905 0.63200003 1.3921568e-38
0.00060000003 -0.16980001 0.63000005 1.3643899e-38
0.0017971429 -0.16953048 0.62900001 1.3828291e-38
0.0029952379 -0.16953048 0.62900001 1.4104162e-38
0.0041866666 -0.16926095 0.62800002 1.4288553e-38
0.0053742859 -0.16899143 0.62700003 1.4105241e-38
0.0065476191 -0.16845238 0.625 1.4474023e-38
0.0077133332 -0.16791333 0.62300003 1.4474023e-38
0.0088857152 -0.16764383 0.62200004 1.4658414e-38
0.010054287 -0.1673743 0.62100005 1.475026e-38
0.011200953 -0.16683523 0.61900002 1.4842455e-38
0.01238 -0.16683523 0.61900002 1.4842102e-38
0.013559048 -0.16683523 0.61900002 1.5210885e-38
0.014714287 -0.16656573 0.61800003 1.5119758e-38
0.015891429 -0.16656573 0.61800003 1.5211954e-38
0.017068572 -0.16656573 0.61800003 1.5211954e-38
0.01818667 -0.16602668 0.61600006 1.5580736e-38
0.019328572 -0.16575713 0.61500001 1.5672929e-38
0.020466669 -0.16548763 0.61400002 1.585732e-38
0.02163619 -0.16548763 0.61400002 1.5949872e-38
0.022805715 -0.16548763 0.61400002 1.6042068e-38
0.023936192 -0.1652181 0.61300004 1.6041712e-38
0.025103811 -0.1652181 0.61300004 1.6133907e-38
0.026228573 -0.16494858 0.61200005 1.6134273e-38
0.027349524 -0.16467904 0.611 1.6503056e-38
0.028513333 -0.16467904 0.611 1.6319738e-38
0.029628571 -0.16440953 0.61000001 1.6319738e-38
0.030790478 -0.16440953 0.61000001 1.6503053e-38
0.031952381 -0.16440953 0.61000001 1.677964e-38
0.033114284 -0.16440953 0.61000001 1.6504129e-38
0.034276191 -0.16440953 0.61000001 1.6780716e-38
0.035438094 -0.16440953 0.61000001 1.6964387e-38
0.036600001 -0.16440953 0.61000001 1.7056582e-38
0.037761904 -0.16440953 0.61000001 1.6965113e-38
0.038923811 -0.16440953 0.61000001 1.7057308e-38
0.040085714 -0.16440953 0.61000001 1.7057308e-38
0.041247621 -0.16440953 0.61000001 1.72417e-38
0.042409524 -0.16440953 0.61000001 1.7425009e-38
0.043571427 -0.16440953 0.61000001 1.7425009e-38
0.044806667 -0.16467904 0.611 1.7425015e-38
0.045970477 -0.16467904 0.611 1.751721e-38
0.047211431 -0.16494858 0.61200005 1.7333895e-38
0.048377149 -0.16494858 0.61200005 1.7333895e-38
0.049542859 -0.16494858 0.61200005 1.7334255e-38
0.050708573 -0.16494858 0.61200005 1.7334255e-38
0.051874291 -0.16494858 0.61200005 1.7517931e-38
0.053040005 -0.16494858 0.61200005 1.7425735e-38
0.054294288 -0.1652181 0.61300004 1.760905e-38
0.055552382 -0.16548763 0.61400002 1.760905e-38
0.056721907 -0.16548763 0.61400002 1.76094e-38
0.057891432 -0.16548763 0.61400002 1.76094e-38
0.059157144 -0.16575713 0.61500001 1.7426088e-38
0.060426671 -0.16602668 0.61600006 1.7426088e-38
0.061900001 -0.16683523 0.61900002 1.7333892e-38
0.063079052 -0.16683523 0.61900002 1.7241697e-38
0.064258099 -0.16683523 0.61900002 1.7425012e-38
0.065437146 -0.16683523 0.61900002 1.7425012e-38
0.066616185 -0.16683523 0.61900002 1.7149151e-38
0.067904763 -0.16710477 0.62 1.7056955e-38
0.069085717 -0.16710477 0.62 1.6964404e-38
0.070266664 -0.16710477 0.62 1.6872208e-38
0.071447626 -0.16710477 0.62 1.6780366e-38
0.072862864 -0.16764383 0.62200004 1.6780366e-38
0.074166663 -0.16791333 0.62300003 1.6595974e-38
0.075474285 -0.16818286 0.62400001 1.6595974e-38
0.077031434 -0.16899143 0.62700003 1.6504132e-38
0.078350477 -0.16926095 0.62800002 1.6227545e-38
0.079546668 -0.16926095 0.62800002 1.6318664e-38
0.081000008 -0.16980001 0.63000005 1.6134273e-38
0.082460955 -0.17033905 0.63200003 1.5030437e-38
0.083929524 -0.1708781 0.634 1.5214828e-38
-0.015285715 -0.17181143 0.64200002 2.1391567e-38
-0.014062857 -0.17181143 0.64200002 2.0193046e-38
-0.01284 -0.17181143 0.64200002 1.6413028e-38
-0.011617143 -0.17181143 0.64200002 1.3004631e-38
-0.010394286 -0.17181143 0.64200002 1.1990479e-38
-0.0091714282 -0.17181143 0.64200002 1.484244e-38
-0.0079485718 -0.17181143 0.64200002 1.7239526e-38
-0.0067257145 -0.17181143 0.64200002 1.8254041e-38
-0.0054942858 -0.17154381 0.64100003 1.8807215e-38
-0.0042666672 -0.1712762 0.64000005 1.8716088e-38
-0.0030333335 -0.17047334 0.63700002 1.5673633e-38
-0.0018114285 -0.16967048 0.634 1.4566228e-38
-0.00060190476 -0.16913524 0.63200003 1.3736468e-38
0.00060095242 -0.16886762 0.63100004 1.3643899e-38
0.0018000001 -0.16860001 0.63000005 1.3828291e-38
0.0030000003 -0.16860001 0.63000005 1.4011963e-38
0.004193333 -0.16833238 0.62900001 1.4011963e-38
0.0053828573 -0.16806476 0.62800002 1.4104527e-38
0.0065685716 -0.16779715 0.62700003 1.4657701e-38
0.0077257147 -0.16699429 0.62400001 1.45655e-38
0.0088999998 -0.16672666 0.62300003 1.4657695e-38
0.010070477 -0.16645905 0.62200004 1.4749541e-38
0.011200953 -0.16565619 0.61900002 1.4933932e-38
0.01238 -0.16565619 0.61900002 1.4842099e-38
0.013559048 -0.16565619 0.61900002 1.5118686e-38
0.014738095 -0.16565619 0.61900002 1.5119758e-38
0.015891429 -0.16538857 0.61800003 1.5304149e-38
0.017068572 -0.16538857 0.61800003 1.5304149e-38
0.01818667 -0.16485333 0.61600006 1.5672932e-38
0.01936 -0.16485333 0.61600006 1.5581089e-38
0.020499999 -0.16458571 0.61500001 1.5765481e-38
0.021671429 -0.16458571 0.61500001 1.5673645e-38
0.022842858 -0.16458571 0.61500001 1.6226819e-38
0.02397524 -0.1643181 0.61400002 1.6134263e-38
0.025103811 -0.16405047 0.61300004 1.6226459e-38
0.026228573 -0.16378286 0.61200005 1.6226469e-38
0.027394287 -0.16378286 0.61200005 1.6503056e-38
0.028560003 -0.16378286 0.61200005 1.6319738e-38
0.029677141 -0.16351523 0.611 1.6227542e-38
0.030790478 -0.16324762 0.61000001 1.6319743e-38
0.031952381 -0.16324762 0.61000001 1.6688526e-38
0.033114284 -0.16324762 0.61000001 1.6504132e-38
0.034276191 -0.16324762 0.61000001 1.6780719e-38
0.035438094 -0.16324762 0.61000001 1.6964387e-38
0.036600001 -0.16324762 0.61000001 1.7056582e-38
0.037761904 -0.16324762 0.61000001 1.696511e-38
0.038923811 -0.16324762 0.61000001 1.696511e-38
0.040085714 -0.16324762 0.61000001 1.7057308e-38
0.041315239 -0.16351523 0.611 1.7057308e-38
0.042479049 -0.16351523 0.611 1.7057308e-38
0.043642856 -0.16351523 0.611 1.7149504e-38
0.044880003 -0.16378286 0.61200005 1.7425009e-38
0.046045717 -0.16378286 0.61200005 1.7517205e-38
0.047288574 -0.16405047 0.61300004 1.7517205e-38
0.048456192 -0.16405047 0.61300004 1.7517205e-38
0.049623813 -0.16405047 0.61300004 1.7517205e-38
0.050791427 -0.16405047 0.61300004 1.7517205e-38
0.051959049 -0.16405047 0.61300004 1.7517208e-38
0.05312667 -0.16405047 0.61300004 1.7609403e-38
0.054382857 -0.1643181 0.61400002 1.76094e-38
0.055642854 -0.16458571 0.61500001 1.7425009e-38
0.056814287 -0.16458571 0.61500001 1.7517561e-38
0.058080003 -0.16485333 0.61600006 1.7701952e-38
0.059445716 -0.16538857 0.61800003 1.7333892e-38
0.06062286 -0.16538857 0.61800003 1.7333892e-38
0.061900001 -0.16565619 0.61900002 1.72417e-38
0.063079052 -0.16565619 0.61900002 1.7149504e-38
0.064258099 -0.16565619 0.61900002 1.7149148e-38
0.065542854 -0.1659238 0.62 1.7333539e-38
0.066723809 -0.1659238 0.62 1.7056955e-38
0.067904763 -0.1659238 0.62 1.696476e-38
0.069085717 -0.1659238 0.62 1.6872561e-38
0.07038001 -0.16619143 0.62100005 1.6780366e-38
0.071562864 -0.16619143 0.62100005 1.6964034e-38
0.072980002 -0.16672666 0.62300003 1.7148425e-38
0.074285716 -0.16699429 0.62400001 1.6779645e-38
0.075595237 -0.1672619 0.625 1.668745e-38
0.077154286 -0.16806476 0.62800002 1.6595248e-38
0.078475237 -0.16833238 0.62900001 1.6226466e-38
0.079673328 -0.16833238 0.62900001 1.6134273e-38
0.081128575 -0.16886762 0.63100004 1.5857686e-38
0.082460955 -0.16913524 0.63200003 1.4846045e-38
0.083929524 -0.16967048 0.634 1.6505567e-38
0.085540004 -0.17047334 0.63700002 1.6873695e-38
-0.014062857 -0.17058858 0.64200002 2.1299374e-38
-0.01284 -0.17058858 0.64200002 1.9547657e-38
-0.011617143 -0.17058858 0.64200002 1.5124834e-38
-0.010394286 -0.17058858 0.64200002 1.1344813e-38
-0.0091714282 -0.17058858 0.64200002 1.2723347e-38
-0.0079485718 -0.17058858 0.64200002 1.6226781e-38
-0.0067257145 -0.17058858 0.64200002 1.7332088e-38
-0.0054942858 -0.17032287 0.64100003 1.7977457e-38
-0.0042666672 -0.17005715 0.64000005 1.7978186e-38
-0.0030333335 -0.16926001 0.63700002 1.5673295e-38
-0.00182 -0.16926001 0.63700002 1.4566582e-38
-0.00060190476 -0.16793142 0.63200003 1.355243e-38
0.00060190476 -0.16793142 0.63200003 1.3551704e-38
0.0018000001 -0.16740002 0.63000005 1.3736095e-38
0.0030000003 -0.16740002 0.63000005 1.3920123e-38
0.0042000003 -0.16740002 0.63000005 1.3827928e-38
0.0053914287 -0.16713428 0.62900001 1.401161e-38
0.0065790475 -0.16686858 0.62800002 1.4564784e-38
0.0077380952 -0.16607143 0.625 1.4473657e-38
0.0088999998 -0.16553999 0.62300003 1.4565853e-38
0.010070477 -0.16527429 0.62200004 1.4657698e-38
0.011237144 -0.16500859 0.62100005 1.484209e-38
0.0124 -0.16474286 0.62 1.4842455e-38
0.013559048 -0.16447714 0.61900002 1.5119042e-38
0.014738095 -0.16447714 0.61900002 1.4935364e-38
0.015917145 -0.16447714 0.61900002 1.5304147e-38
0.017068572 -0.16421144 0.61800003 1.5396342e-38
0.018245716 -0.16421144 0.61800003 1.5396342e-38
0.01936 -0.16368002 0.61600006 1.5396342e-38
0.020533334 -0.16368002 0.61600006 1.5580734e-38
0.021706669 -0.16368002 0.61600006 1.5581452e-38
0.022842858 -0.16341428 0.61500001 1.5950235e-38
0.02397524 -0.16314857 0.61400002 1.5858036e-38
0.025103811 -0.16288286 0.61300004 1.6134623e-38
0.026271429 -0.16288286 0.61300004 1.6226466e-38
0.027394287 -0.16261716 0.61200005 1.6410857e-38
0.028560003 -0.16261716 0.61200005 1.6410857e-38
0.029677141 -0.16235141 0.611 1.6410857e-38
0.030840952 -0.16235141 0.611 1.641086e-38
0.032004762 -0.16235141 0.611 1.6687447e-38
0.033114284 -0.16208571 0.61000001 1.6503409e-38
0.034276191 -0.16208571 0.61000001 1.6872191e-38
0.035438094 -0.16208571 0.61000001 1.6780716e-38
0.036600001 -0.16208571 0.61000001 1.6965107e-38
0.037761904 -0.16208571 0.61000001 1.696511e-38
0.038923811 -0.16208571 0.61000001 1.696511e-38
0.040151428 -0.16235141 0.611 1.7057308e-38
0.041315239 -0.16235141 0.611 1.72417e-38
0.042548575 -0.16261716 0.61200005 1.7149501e-38
0.043714289 -0.16261716 0.61200005 1.7241697e-38
0.044880003 -0.16261716 0.61200005 1.7517208e-38
0.046045717 -0.16261716 0.61200005 1.7517208e-38
0.047365714 -0.16314857 0.61400002 1.7517205e-38
0.048535239 -0.16314857 0.61400002 1.7517205e-38
0.049704764 -0.16314857 0.61400002 1.7517205e-38
0.050874289 -0.16314857 0.61400002 1.76094e-38
0.052128572 -0.16341428 0.61500001 1.7609406e-38
0.053300001 -0.16341428 0.61500001 1.7609406e-38
0.054471429 -0.16341428 0.61500001 1.76094e-38
0.055642854 -0.16341428 0.61500001 1.7425009e-38
0.056814287 -0.16341428 0.61500001 1.7425009e-38
0.058080003 -0.16368002 0.61600006 1.7517205e-38
0.059445716 -0.16421144 0.61800003 1.7333539e-38
0.06072095 -0.16447714 0.61900002 1.7333539e-38
0.061999999 -0.16474286 0.62 1.72417e-38
0.063180953 -0.16474286 0.62 1.72417e-38
0.064361908 -0.16474286 0.62 1.7149148e-38
0.065542854 -0.16474286 0.62 1.7149148e-38
0.066723809 -0.16474286 0.62 1.6872208e-38
0.067904763 -0.16474286 0.62 1.6872208e-38
0.069085717 -0.16474286 0.62 1.6780366e-38
0.07038001 -0.16500859 0.62100005 1.6780366e-38
0.071562864 -0.16500859 0.62100005 1.6963315e-38
0.072980002 -0.16553999 0.62300003 1.6871119e-38
0.074285716 -0.16580573 0.62400001 1.6686731e-38
0.075595237 -0.16607143 0.625 1.6686731e-38
0.077154286 -0.16686858 0.62800002 1.6503053e-38
0.078475237 -0.16713428 0.62900001 1.6318662e-38
0.079673328 -0.16713428 0.62900001 1.6226106e-38
0.08125715 -0.16793142 0.63200003 1.5580736e-38
0.082721904 -0.16846286 0.634 1.4845689e-38
0.084194295 -0.16899429 0.63600004 1.8164732e-38
0.085540004 -0.16926001 0.63700002 1.8442415e-38
-0.011617143 -0.16936572 0.64200002 1.9362939e-38
-0.010394286 -0.16936572 0.64200002 1.3554614e-38
-0.0091714282 -0.16936572 0.64200002 1.1529849e-38
-0.0079485718 -0.16936572 0.64200002 1.3465957e-38
-0.0067257145 -0.16936572 0.64200002 1.6134251e-38
-0.0055028573 -0.16936572 0.64200002 1.7148403e-38
-0.0042733336 -0.16910191 0.64100003 1.7332804e-38
-0.0030333335 -0.16804667 0.63700002 1.5765478e-38
-0.00182 -0.16804667 0.63700002 1.4566594e-38
-0.00060380955 -0.16725524 0.634 1.3460247e-38
0.00060190476 -0.16672763 0.63200003 1.3459508e-38
0.0018028573 -0.16646382 0.63100004 1.3643899e-38
0.0030047621 -0.16646382 0.63100004 1.3735732e-38
0.0042000003 -0.16620001 0.63000005 1.3827928e-38
0.0053914287 -0.16593619 0.62900001 1.391977e-38
0.0065790475 -0.16567239 0.62800002 1.4472944e-38
0.0077628572 -0.16540858 0.62700003 1.4473294e-38
0.0088999998 -0.16435334 0.62300003 1.4657686e-38
0.010070477 -0.16408953 0.62200004 1.4749884e-38
0.011237144 -0.16382572 0.62100005 1.484208e-38
0.0124 -0.16356191 0.62 1.4657708e-38
0.013580953 -0.16356191 0.62 1.4934295e-38
0.014738095 -0.16329809 0.61900002 1.50272e-38
0.015917145 -0.16329809 0.61900002 1.5119395e-38
0.01709619 -0.16329809 0.61900002 1.5303784e-38
0.018245716 -0.16303429 0.61800003 1.5488175e-38
0.019422857 -0.16303429 0.61800003 1.5396342e-38
0.020533334 -0.16250668 0.61600006 1.5580734e-38
0.021706669 -0.16250668 0.61600006 1.5672932e-38
0.022842858 -0.16224284 0.61500001 1.5949519e-38
0.024014285 -0.16224284 0.61500001 1.5949516e-38
0.025144761 -0.16197905 0.61400002 1.6410494e-38
0.026271429 -0.16171524 0.61300004 1.6226819e-38
0.027439049 -0.16171524 0.61300004 1.6226819e-38
0.028606668 -0.16171524 0.61300004 1.6318664e-38
0.029725716 -0.16145144 0.61200005 1.641086e-38
0.030840952 -0.16118762 0.611 1.641086e-38
0.032004762 -0.16118762 0.611 1.6687447e-38
0.033168569 -0.16118762 0.611 1.66878e-38
0.03433238 -0.16118762 0.611 1.6779996e-38
0.03549619 -0.16118762 0.611 1.6964024e-38
0.036600001 -0.16092381 0.61000001 1.7240611e-38
0.037761904 -0.16092381 0.61000001 1.7148775e-38
0.038987618 -0.16118762 0.611 1.7148775e-38
0.040217146 -0.16145144 0.61200005 1.7057308e-38
0.04138286 -0.16145144 0.61200005 1.72417e-38
0.042548575 -0.16145144 0.61200005 1.7332813e-38
0.043714289 -0.16145144 0.61200005 1.7425009e-38
0.044880003 -0.16145144 0.61200005 1.7516854e-38
0.046120953 -0.16171524 0.61300004 1.7516854e-38
0.047365714 -0.16197905 0.61400002 1.7517205e-38
0.048535239 -0.16197905 0.61400002 1.7517205e-38
0.049704764 -0.16197905 0.61400002 1.7425009e-38
0.050874289 -0.16197905 0.61400002 1.7517205e-38
0.052128572 -0.16224284 0.61500001 1.760905e-38
0.053300001 -0.16224284 0.61500001 1.7516854e-38
0.054560006 -0.16250668 0.61600006 1.7425015e-38
0.055733338 -0.16250668 0.61600006 1.7425015e-38
0.056906674 -0.16250668 0.61600006 1.7425009e-38
0.058080003 -0.16250668 0.61600006 1.7425009e-38
0.059445716 -0.16303429 0.61800003 1.7516854e-38
0.06072095 -0.16329809 0.61900002 1.7516854e-38
0.061999999 -0.16356191 0.62 1.7425009e-38
0.063180953 -0.16356191 0.62 1.7332813e-38
0.064361908 -0.16356191 0.62 1.7149501e-38
0.065542854 -0.16356191 0.62 1.7057306e-38
0.066831432 -0.16382572 0.62100005 1.6780368e-38
0.068014294 -0.16382572 0.62100005 1.6872564e-38
0.069197148 -0.16382572 0.62100005 1.6964034e-38
0.07049334 -0.16408953 0.62200004 1.6871838e-38
0.071678095 -0.16408953 0.62200004 1.6871119e-38
0.07309714 -0.16461715 0.62400001 1.6686728e-38
0.074404761 -0.16488095 0.625 1.6594182e-38
0.07583715 -0.16540858 0.62700003 1.6594182e-38
0.077277139 -0.16593619 0.62900001 1.6502693e-38
0.078475237 -0.16593619 0.62900001 1.6410497e-38
0.07980001 -0.16620001 0.63000005 1.6042077e-38
0.081514291 -0.16725524 0.634 1.5027926e-38
0.082852393 -0.16751906 0.63500005 1.4478352e-38
0.08432667 -0.16804667 0.63700002 1.8350568e-38
-0.010394286 -0.16814286 0.64200002 1.7703388e-38
-0.0091714282 -0.16814286 0.64200002 1.2267125e-38
-0.0079485718 -0.16814286 0.64200002 1.2451516e-38
-0.0067257145 -0.16814286 0.64200002 1.4843847e-38
-0.0055028573 -0.16814286 0.64200002 1.7056542e-38
-0.0042733336 -0.16788095 0.64100003 1.6872564e-38
-0.0030380953 -0.16709523 0.63800001 1.5674021e-38
-0.0018228572 -0.16709523 0.63800001 1.4566594e-38
-0.00060761906 -0.16709523 0.63800001 1.3368051e-38
0.00060380955 -0.16604762 0.634 1.336731e-38
0.0018028573 -0.16526191 0.63100004 1.3459505e-38
0.0030047621 -0.16526191 0.63100004 1.3550622e-38
0.0042000003 -0.16500001 0.63000005 1.3735013e-38
0.0053914287 -0.1647381 0.62900001 1.4011603e-38
0.0065790475 -0.1644762 0.62800002 1.428819e-38
0.0077628572 -0.16421428 0.62700003 1.419671e-38
0.0089142863 -0.16342857 0.62400001 1.4657688e-38
0.010086667 -0.16316667 0.62300003 1.4657688e-38
0.011255239 -0.16290477 0.62200004 1.4657688e-38
0.0124 -0.16238095 0.62 1.4657698e-38
0.013580953 -0.16238095 0.62 1.5026481e-38
0.014738095 -0.16211905 0.61900002 1.5027197e-38
0.015917145 -0.16211905 0.61900002 1.5119392e-38
0.01709619 -0.16211905 0.61900002 1.5119395e-38
0.018245716 -0.16185716 0.61800003 1.5395982e-38
0.019422857 -0.16185716 0.61800003 1.5303787e-38
0.020533334 -0.16133334 0.61600006 1.5488178e-38
0.021706669 -0.16133334 0.61600006 1.5580017e-38
0.022842858 -0.16107142 0.61500001 1.5672213e-38
0.024014285 -0.16107142 0.61500001 1.5856604e-38
0.025144761 -0.16080953 0.61400002 1.6317583e-38
0.026271429 -0.16054763 0.61300004 1.6226822e-38
0.027439049 -0.16054763 0.61300004 1.6226822e-38
0.028606668 -0.16054763 0.61300004 1.6318662e-38
0.029725716 -0.16028573 0.61200005 1.6410857e-38
0.03089143 -0.16028573 0.61200005 1.6503053e-38
0.032057147 -0.16028573 0.61200005 1.6687444e-38
0.033222858 -0.16028573 0.61200005 1.677964e-38
0.034388572 -0.16028573 0.61200005 1.677964e-38
0.03555429 -0.16028573 0.61200005 1.677928e-38
0.036720004 -0.16028573 0.61200005 1.7240258e-38
0.037885718 -0.16028573 0.61200005 1.7240258e-38
0.039051428 -0.16028573 0.61200005 1.7148062e-38
0.040282857 -0.16054763 0.61300004 1.6595974e-38
0.041450478 -0.16054763 0.61300004 1.6964757e-38
0.042548575 -0.16028573 0.61200005 1.6872914e-38
0.043714289 -0.16028573 0.61200005 1.7241697e-38
0.044953335 -0.16054763 0.61300004 1.7517208e-38
0.046120953 -0.16054763 0.61300004 1.7517208e-38
0.047365714 -0.16080953 0.61400002 1.7517205e-38
0.048614286 -0.16107142 0.61500001 1.7517205e-38
0.049785715 -0.16107142 0.61500001 1.7425365e-38
0.050957143 -0.16107142 0.61500001 1.7425365e-38
0.052128572 -0.16107142 0.61500001 1.7333539e-38
0.053300001 -0.16107142 0.61500001 1.7333539e-38
0.054560006 -0.16133334 0.61600006 1.7425009e-38
0.055733338 -0.16133334 0.61600006 1.7517205e-38
0.056906674 -0.16133334 0.61600006 1.7517205e-38
0.058080003 -0.16133334 0.61600006 1.7332813e-38
0.059541903 -0.16211905 0.61900002 1.7332819e-38
0.06072095 -0.16211905 0.61900002 1.7332819e-38
0.061999999 -0.16238095 0.62 1.7149504e-38
0.063180953 -0.16238095 0.62 1.7149504e-38
0.064361908 -0.16238095 0.62 1.6965113e-38
0.065648578 -0.16264287 0.62100005 1.6965113e-38
0.066831432 -0.16264287 0.62100005 1.6688173e-38
0.068014294 -0.16264287 0.62100005 1.6595977e-38
0.069197148 -0.16264287 0.62100005 1.6871841e-38
0.070606664 -0.16316667 0.62300003 1.6871841e-38
0.071793333 -0.16316667 0.62300003 1.6687444e-38
0.073214285 -0.16369048 0.625 1.6595248e-38
0.074642867 -0.16421428 0.62700003 1.6594532e-38
0.075958095 -0.1644762 0.62800002 1.6410141e-38
0.077400006 -0.16500001 0.63000005 1.6318301e-38
0.078724764 -0.16526191 0.63100004 1.6226106e-38
0.080053337 -0.16552381 0.63200003 1.5582538e-38
0.081642859 -0.16630954 0.63500005 1.4937169e-38
0.082982861 -0.16657144 0.63600004 1.4295053e-38
0.084459044 -0.16709523 0.63800001 1.8720444e-38
-0.0054942858 -0.16666001 0.64100003 1.530774e-38
-0.0042733336 -0.16666001 0.64100003 1.6594552e-38
-0.0030476192 -0.16640002 0.64000005 1.6502356e-38
-0.0018285714 -0.16640002 0.64000005 1.5396345e-38
-0.00060952385 -0.16640002 0.64000005 1.3368041e-38
0.00060380955 -0.16484 0.634 1.299853e-38
0.0018028573 -0.16406001 0.63100004 1.3275117e-38
0.0030047621 -0.16406001 0.63100004 1.336695e-38
0.0042000003 -0.16380002 0.63000005 1.3643537e-38
0.0053914287 -0.16353999 0.62900001 1.3827209e-38
0.0065790475 -0.16328 0.62800002 1.4103796e-38
0.0077628572 -0.16302 0.62700003 1.4011966e-38
0.0089285709 -0.16249999 0.625 1.4657335e-38
0.010086667 -0.16198 0.62300003 1.456549e-38
0.011273334 -0.16198 0.62300003 1.4657686e-38
0.012420001 -0.16146001 0.62100005 1.4749891e-38
0.013602857 -0.16146001 0.62100005 1.5026478e-38
0.014761904 -0.16119999 0.62 1.5027197e-38
0.015917145 -0.16093999 0.61900002 1.5027197e-38
0.01709619 -0.16093999 0.61900002 1.5119042e-38
0.018245716 -0.16068 0.61800003 1.5303433e-38
0.019422857 -0.16068 0.61800003 1.5303784e-38
0.020533334 -0.16016001 0.61600006 1.5303784e-38
0.021706669 -0.16016001 0.61600006 1.5395273e-38
0.022880001 -0.16016001 0.61600006 1.5579664e-38
0.024014285 -0.15990001 0.61500001 1.5856604e-38
0.025144761 -0.15964001 0.61400002 1.6317583e-38
0.026271429 -0.15938002 0.61300004 1.6226459e-38
0.027439049 -0.15938002 0.61300004 1.6226459e-38
0.028606668 -0.15938002 0.61300004 1.6226469e-38
0.029774288 -0.15938002 0.61300004 1.641086e-38
0.030941907 -0.15938002 0.61300004 1.6503409e-38
0.032109525 -0.15938002 0.61300004 1.6503409e-38
0.033277143 -0.15938002 0.61300004 1.6595251e-38
0.034444764 -0.15938002 0.61300004 1.6871838e-38
0.035612382 -0.15938002 0.61300004 1.6779645e-38
0.036780003 -0.15938002 0.61300004 1.6964037e-38
0.037947621 -0.15938002 0.61300004 1.7056582e-38
0.039115239 -0.15938002 0.61300004 1.7148778e-38
0.040282857 -0.15938002 0.61300004 1.6872917e-38
0.041450478 -0.15938002 0.61300004 1.6965113e-38
0.0426181 -0.15938002 0.61300004 1.6964757e-38
0.043785717 -0.15938002 0.61300004 1.7149148e-38
0.045026667 -0.15964001 0.61400002 1.7517561e-38
0.046196189 -0.15964001 0.61400002 1.7517561e-38
0.047442857 -0.15990001 0.61500001 1.7517205e-38
0.048614286 -0.15990001 0.61500001 1.7517205e-38
0.049785715 -0.15990001 0.61500001 1.7333523e-38
0.050957143 -0.15990001 0.61500001 1.7425718e-38
0.052128572 -0.15990001 0.61500001 1.7517205e-38
0.053300001 -0.15990001 0.61500001 1.7517205e-38
0.054560006 -0.16016001 0.61600006 1.7517205e-38
0.055914287 -0.16068 0.61800003 1.7425009e-38
0.05709143 -0.16068 0.61800003 1.7425012e-38
0.058268573 -0.16068 0.61800003 1.7332816e-38
0.059541903 -0.16093999 0.61900002 1.7149504e-38
0.06072095 -0.16093999 0.61900002 1.7057308e-38
0.061999999 -0.16119999 0.62 1.7149504e-38
0.063180953 -0.16119999 0.62 1.7149504e-38
0.064361908 -0.16119999 0.62 1.6964757e-38
0.065648578 -0.16146001 0.62100005 1.6964757e-38
0.066939048 -0.16172001 0.62200004 1.6780012e-38
0.068123817 -0.16172001 0.62200004 1.6687817e-38
0.069308572 -0.16172001 0.62200004 1.6688526e-38
0.070720002 -0.16224 0.62400001 1.659633e-38
0.072023809 -0.16249999 0.625 1.6779996e-38
0.073448576 -0.16302 0.62700003 1.6503409e-38
0.074642867 -0.16302 0.62700003 1.641086e-38
0.076079048 -0.16353999 0.62900001 1.6318664e-38
0.077400006 -0.16380002 0.63000005 1.6318301e-38
0.078724764 -0.16406001 0.63100004 1.5857323e-38
0.080053337 -0.16432001 0.63200003 1.530632e-38
0.081642859 -0.16510001 0.63500005 1.4937538e-38
0.083113335 -0.16562 0.63700002 1.5215578e-38
0.084459044 -0.16587999 0.63800001 2.0009734e-38
-0.0054942858 -0.16543905 0.64100003 1.3922651e-38
-0.0042733336 -0.16543905 0.64100003 1.6224658e-38
-0.0030523811 -0.16543905 0.64100003 1.6593441e-38
-0.0018285714 -0.16518097 0.64000005 1.5580746e-38
-0.00060952385 -0.16518097 0.64000005 1.3275855e-38
0.00060761906 -0.16466478 0.63800001 1.2723019e-38
0.0018057144 -0.16311619 0.63200003 1.2999606e-38
0.0030047621 -0.1628581 0.63100004 1.3367666e-38
0.004193333 -0.16234191 0.62900001 1.3459861e-38
0.0053914287 -0.16234191 0.62900001 1.3827209e-38
0.0065790475 -0.1620838 0.62800002 1.3919405e-38
0.0077628572 -0.16182572 0.62700003 1.391977e-38
0.0089285709 -0.16130953 0.625 1.4288553e-38
0.010102857 -0.16105144 0.62400001 1.419671e-38
0.011273334 -0.16079333 0.62300003 1.4657688e-38
0.012440001 -0.16053525 0.62200004 1.4749891e-38
0.013602857 -0.16027716 0.62100005 1.4934282e-38
0.014761904 -0.16001906 0.62 1.4842808e-38
0.015942857 -0.16001906 0.62 1.50272e-38
0.01709619 -0.15976095 0.61900002 1.5119395e-38
0.018275239 -0.15976095 0.61900002 1.5303787e-38
0.019422857 -0.15950286 0.61800003 1.5395982e-38
0.020533334 -0.15898669 0.61600006 1.5395982e-38
0.021706669 -0.15898669 0.61600006 1.5395626e-38
0.022880001 -0.15898669 0.61600006 1.5580017e-38
0.024014285 -0.15872858 0.61500001 1.5764412e-38
0.025144761 -0.15847048 0.61400002 1.622539e-38
0.026314287 -0.15847048 0.61400002 1.6042075e-38
0.027483812 -0.15847048 0.61400002 1.5949879e-38
0.028653333 -0.15847048 0.61400002 1.6042077e-38
0.029822858 -0.15847048 0.61400002 1.641086e-38
0.030941907 -0.15821239 0.61300004 1.641086e-38
0.032109525 -0.15821239 0.61300004 1.6503056e-38
0.033277143 -0.15821239 0.61300004 1.6503053e-38
0.034444764 -0.15821239 0.61300004 1.677964e-38
0.035612382 -0.15821239 0.61300004 1.659633e-38
0.036780003 -0.15821239 0.61300004 1.6780721e-38
0.037947621 -0.15821239 0.61300004 1.6871838e-38
0.039115239 -0.15821239 0.61300004 1.7056229e-38
0.040282857 -0.15821239 0.61300004 1.6965113e-38
0.041450478 -0.15821239 0.61300004 1.7057308e-38
0.0426181 -0.15821239 0.61300004 1.7057308e-38
0.043785717 -0.15821239 0.61300004 1.7149504e-38
0.045026667 -0.15847048 0.61400002 1.7426088e-38
0.046196189 -0.15847048 0.61400002 1.7333892e-38
0.047442857 -0.15872858 0.61500001 1.7149504e-38
0.048614286 -0.15872858 0.61500001 1.72417e-38
0.049785715 -0.15872858 0.61500001 1.7425009e-38
0.050957143 -0.15872858 0.61500001 1.7425009e-38
0.052128572 -0.15872858 0.61500001 1.7425009e-38
0.05338667 -0.15898669 0.61600006 1.7517205e-38
0.054560006 -0.15898669 0.61600006 1.7517205e-38
0.055914287 -0.15950286 0.61800003 1.7425009e-38
0.057183813 -0.15976095 0.61900002 1.7149504e-38
0.05836286 -0.15976095 0.61900002 1.7149504e-38
0.059638094 -0.16001906 0.62 1.7149504e-38
0.060819048 -0.16001906 0.62 1.7057308e-38
0.061999999 -0.16001906 0.62 1.7057308e-38
0.063180953 -0.16001906 0.62 1.7057308e-38
0.064465716 -0.16027716 0.62100005 1.6965113e-38
0.065754294 -0.16053525 0.62200004 1.6872917e-38
0.066939048 -0.16053525 0.62200004 1.6780366e-38
0.068233334 -0.16079333 0.62300003 1.668817e-38
0.069420002 -0.16079333 0.62300003 1.6688526e-38
0.070720002 -0.16105144 0.62400001 1.659633e-38
0.072254293 -0.16182572 0.62700003 1.6871835e-38
0.073448576 -0.16182572 0.62700003 1.6410857e-38
0.074761905 -0.1620838 0.62800002 1.6410144e-38
0.076079048 -0.16234191 0.62900001 1.6410144e-38
0.077522859 -0.1628581 0.63100004 1.6318301e-38
0.078849532 -0.16311619 0.63200003 1.5857323e-38
0.080306664 -0.16363238 0.634 1.5213756e-38
0.081900001 -0.16440667 0.63700002 1.4937169e-38
0.083113335 -0.16440667 0.63700002 1.595242e-38
0.084459044 -0.16466478 0.63800001 2.0377793e-38
-0.0054942858 -0.16421811 0.64100003 1.1803636e-38
-0.0042733336 -0.16421811 0.64100003 1.4381815e-38
-0.0030523811 -0.16421811 0.64100003 1.6133532e-38
-0.0018285714 -0.16396192 0.64000005 1.5672203e-38
-0.00060952385 -0.16396192 0.64000005 1.3367313e-38
0.00060761906 -0.16344953 0.63800001 1.2723019e-38
0.00182 -0.16319335 0.63700002 1.2999606e-38
0.003009524 -0.1619124 0.63200003 1.3366947e-38
0.004193333 -0.16114381 0.62900001 1.3459142e-38
0.0053914287 -0.16114381 0.62900001 1.3642818e-38
0.0065790475 -0.16088763 0.62800002 1.3827209e-38
0.0077628572 -0.16063143 0.62700003 1.391977e-38
0.0089571439 -0.16063143 0.62700003 1.4288553e-38
0.010102857 -0.15986286 0.62400001 1.4196717e-38
0.011273334 -0.15960667 0.62300003 1.45655e-38
0.012440001 -0.15935048 0.62200004 1.4658049e-38
0.013624762 -0.15935048 0.62200004 1.4658049e-38
0.014785715 -0.15909429 0.62100005 1.4658064e-38
0.015942857 -0.15883809 0.62 1.5026847e-38
0.01709619 -0.1585819 0.61900002 1.5119392e-38
0.018275239 -0.1585819 0.61900002 1.5119392e-38
0.019454286 -0.1585819 0.61900002 1.5211235e-38
0.0206 -0.15832572 0.61800003 1.5487822e-38
0.021777144 -0.15832572 0.61800003 1.5395626e-38
0.022954287 -0.15832572 0.61800003 1.5580017e-38
0.024053335 -0.15781334 0.61600006 1.5764412e-38
0.025185714 -0.15755714 0.61500001 1.6040998e-38
0.026357144 -0.15755714 0.61500001 1.5949166e-38
0.027483812 -0.15730095 0.61400002 1.5949166e-38
0.028653333 -0.15730095 0.61400002 1.613356e-38
0.029822858 -0.15730095 0.61400002 1.6317951e-38
0.030992381 -0.15730095 0.61400002 1.6410497e-38
0.032161906 -0.15730095 0.61400002 1.6594888e-38
0.033331428 -0.15730095 0.61400002 1.6503053e-38
0.034500953 -0.15730095 0.61400002 1.6871835e-38
0.035670478 -0.15730095 0.61400002 1.677964e-38
0.036840003 -0.15730095 0.61400002 1.6871835e-38
0.038009524 -0.15730095 0.61400002 1.6871838e-38
0.039179049 -0.15730095 0.61400002 1.6871838e-38
0.040348571 -0.15730095 0.61400002 1.6872917e-38
0.041450478 -0.15704477 0.61300004 1.7057308e-38
0.0426181 -0.15704477 0.61300004 1.7057308e-38
0.043785717 -0.15704477 0.61300004 1.7057308e-38
0.045026667 -0.15730095 0.61400002 1.7056952e-38
0.046196189 -0.15730095 0.61400002 1.7149148e-38
0.047442857 -0.15755714 0.61500001 1.7057308e-38
0.048614286 -0.15755714 0.61500001 1.72417e-38
0.049785715 -0.15755714 0.61500001 1.760905e-38
0.050957143 -0.15755714 0.61500001 1.7424659e-38
0.052213337 -0.15781334 0.61600006 1.7332813e-38
0.05338667 -0.15781334 0.61600006 1.7425009e-38
0.054560006 -0.15781334 0.61600006 1.7425365e-38
0.056004763 -0.1585819 0.61900002 1.7240974e-38
0.057183813 -0.1585819 0.61900002 1.7332813e-38
0.05836286 -0.1585819 0.61900002 1.7425009e-38
0.059638094 -0.15883809 0.62 1.7057308e-38
0.060819048 -0.15883809 0.62 1.6965113e-38
0.062100001 -0.15909429 0.62100005 1.7057308e-38
0.063282862 -0.15909429 0.62100005 1.6965113e-38
0.064569525 -0.15935048 0.62200004 1.696511e-38
0.065754294 -0.15935048 0.62200004 1.6780719e-38
0.067046665 -0.15960667 0.62300003 1.6688523e-38
0.068233334 -0.15960667 0.62300003 1.6596327e-38
0.069531433 -0.15986286 0.62400001 1.6596325e-38
0.070833333 -0.16011904 0.625 1.6596325e-38
0.072369523 -0.16088763 0.62800002 1.6503056e-38
0.073565714 -0.16088763 0.62800002 1.6226469e-38
0.07488095 -0.16114381 0.62900001 1.6317945e-38
0.076200008 -0.16140002 0.63000005 1.6317945e-38
0.077645719 -0.1619124 0.63200003 1.6133907e-38
0.079099044 -0.16242476 0.634 1.5672929e-38
0.080433339 -0.16268097 0.63500005 1.4937169e-38
0.081900001 -0.16319335 0.63700002 1.6043517e-38
0.08324381 -0.16344953 0.63800001 1.5952815e-38
0.084459044 -0.16344953 0.63800001 1.9917181e-38
-0.0055028573 -0.16325143 0.64200002 1.1528488e-38
-0.00428 -0.16325143 0.64200002 1.263154e-38
-0.003057143 -0.16325143 0.64200002 1.5213017e-38
-0.0018314286 -0.16299714 0.64100003 1.5580017e-38
-0.00060952385 -0.16274285 0.64000005 1.3367322e-38
0.00060761906 -0.16223429 0.63800001 1.2906685e-38
0.00182 -0.16198 0.63700002 1.299888e-38
0.0030190477 -0.16121714 0.634 1.3181837e-38
0.0042000003 -0.16020001 0.63000005 1.3274032e-38
0.0053914287 -0.15994573 0.62900001 1.3642818e-38
0.0065790475 -0.15969144 0.62800002 1.3642818e-38
0.0077752387 -0.15969144 0.62800002 1.3643544e-38
0.0089714285 -0.15969144 0.62800002 1.4104522e-38
0.010151429 -0.15943715 0.62700003 1.4013045e-38
0.011291428 -0.15867428 0.62400001 1.4289632e-38
0.01246 -0.15842 0.62300003 1.4381464e-38
0.013624762 -0.15816572 0.62200004 1.4565856e-38
0.014785715 -0.15791143 0.62100005 1.4658417e-38
0.015942857 -0.15765715 0.62 1.50272e-38
0.017123809 -0.15765715 0.62 1.5027197e-38
0.018304761 -0.15765715 0.62 1.4935001e-38
0.019485716 -0.15765715 0.62 1.4935004e-38
0.020633334 -0.15740286 0.61900002 1.5395982e-38
0.021812381 -0.15740286 0.61900002 1.5395982e-38
0.022954287 -0.15714858 0.61800003 1.5672569e-38
0.024053335 -0.15664001 0.61600006 1.5672213e-38
0.025185714 -0.15638572 0.61500001 1.5764409e-38
0.026357144 -0.15638572 0.61500001 1.5856251e-38
0.027662858 -0.15714858 0.61800003 1.6132838e-38
0.028840002 -0.15714858 0.61800003 1.622539e-38
0.029822858 -0.15613143 0.61400002 1.6317585e-38
0.030992381 -0.15613143 0.61400002 1.6317583e-38
0.032161906 -0.15613143 0.61400002 1.6686365e-38
0.033440001 -0.15664001 0.61600006 1.6503053e-38
0.034557141 -0.15638572 0.61500001 1.677964e-38
0.035670478 -0.15613143 0.61400002 1.6687444e-38
0.036840003 -0.15613143 0.61400002 1.6871835e-38
0.038071431 -0.15638572 0.61500001 1.6779642e-38
0.039179049 -0.15613143 0.61400002 1.6779642e-38
0.040348571 -0.15613143 0.61400002 1.6964034e-38
0.041450478 -0.15587714 0.61300004 1.7056229e-38
0.0426181 -0.15587714 0.61300004 1.6872917e-38
0.043857146 -0.15613143 0.61400002 1.6965113e-38
0.045026667 -0.15613143 0.61400002 1.696511e-38
0.046196189 -0.15613143 0.61400002 1.7057306e-38
0.047442857 -0.15638572 0.61500001 1.7148775e-38
0.048614286 -0.15638572 0.61500001 1.7240971e-38
0.049866669 -0.15664001 0.61600006 1.7332819e-38
0.051040005 -0.15664001 0.61600006 1.7240623e-38
0.052467622 -0.15740286 0.61900002 1.7056582e-38
0.053646669 -0.15740286 0.61900002 1.7240974e-38
0.054914284 -0.15765715 0.62 1.7332816e-38
0.056095239 -0.15765715 0.62 1.7240621e-38
0.057183813 -0.15740286 0.61900002 1.7057308e-38
0.05836286 -0.15740286 0.61900002 1.7149504e-38
0.059638094 -0.15765715 0.62 1.6965113e-38
0.060819048 -0.15765715 0.62 1.6872917e-38
0.062100001 -0.15791143 0.62100005 1.6872917e-38
0.063282862 -0.15791143 0.62100005 1.6780721e-38
0.064569525 -0.15816572 0.62200004 1.6688526e-38
0.065859996 -0.15842 0.62300003 1.6780721e-38
0.067046665 -0.15842 0.62300003 1.6596327e-38
0.068342857 -0.15867428 0.62400001 1.6504132e-38
0.069642857 -0.15892857 0.625 1.66878e-38
0.071060002 -0.15943715 0.62700003 1.66878e-38
0.072369523 -0.15969144 0.62800002 1.6318667e-38
0.07368286 -0.15994573 0.62900001 1.6226471e-38
0.075000003 -0.16020001 0.63000005 1.6317945e-38
0.076441906 -0.16070858 0.63200003 1.6133554e-38
0.077891432 -0.16121714 0.634 1.6041352e-38
0.079223812 -0.16147144 0.63500005 1.5395982e-38
0.080560006 -0.16172573 0.63600004 1.4476541e-38
-0.0055200006 -0.16253334 0.64400005 1.2817376e-38
-0.0042866664 -0.16228096 0.64300001 1.1526647e-38
-0.0030619048 -0.16228096 0.64300001 1.4108124e-38
-0.0018342858 -0.16202858 0.64200002 1.5118674e-38
-0.00061142858 -0.16202858 0.64200002 1.3551348e-38
0.00061047624 -0.1617762 0.64100003 1.2813776e-38
0.0018228572 -0.16101906 0.63800001 1.3090363e-38
0.0030238098 -0.16026191 0.63500005 1.3089644e-38
0.0042066667 -0.15925239 0.63100004 1.2997448e-38
0.0053914287 -0.15874761 0.62900001 1.3274398e-38
0.006589524 -0.15874761 0.62900001 1.3643181e-38
0.0077752387 -0.15849523 0.62800002 1.3735376e-38
0.0089714285 -0.15849523 0.62800002 1.4196354e-38
0.010167619 -0.15849523 0.62800002 1.4104878e-38
0.011345715 -0.15824287 0.62700003 1.4381464e-38
0.01254 -0.15824287 0.62700003 1.4381464e-38
0.013734286 -0.15824287 0.62700003 1.4381464e-38
0.014928573 -0.15824287 0.62700003 1.4382193e-38
0.016071428 -0.15773809 0.625 1.4750976e-38
0.017234286 -0.15748571 0.62400001 1.4842806e-38
0.018393334 -0.15723333 0.62300003 1.4935001e-38
0.019579999 -0.15723333 0.62300003 1.5026847e-38
0.020733334 -0.15698096 0.62200004 1.5211238e-38
0.021918098 -0.15698096 0.62200004 1.5303431e-38
0.023065716 -0.15672858 0.62100005 1.5580017e-38
0.024248574 -0.15672858 0.62100005 1.5672569e-38
0.025390476 -0.15647618 0.62 1.5580373e-38
0.026528573 -0.15622382 0.61900002 1.5672582e-38
0.02770762 -0.15622382 0.61900002 1.6041364e-38
0.028886668 -0.15622382 0.61900002 1.6225743e-38
0.030017143 -0.15597144 0.61800003 1.6225743e-38
0.031194286 -0.15597144 0.61800003 1.6317585e-38
0.032266673 -0.15546669 0.61600006 1.6501977e-38
0.033440001 -0.15546669 0.61600006 1.6502693e-38
0.034557141 -0.15521429 0.61500001 1.6687084e-38
0.03572857 -0.15521429 0.61500001 1.66878e-38
0.036899999 -0.15521429 0.61500001 1.6779996e-38
0.038071431 -0.15521429 0.61500001 1.677964e-38
0.03924286 -0.15521429 0.61500001 1.677964e-38
0.040480006 -0.15546669 0.61600006 1.6871835e-38
0.041653335 -0.15546669 0.61600006 1.6871835e-38
0.042826667 -0.15546669 0.61600006 1.6780721e-38
0.044142857 -0.15597144 0.61800003 1.6872917e-38
0.045173336 -0.15546669 0.61600006 1.7056582e-38
0.046346672 -0.15546669 0.61600006 1.6964387e-38
0.047674287 -0.15597144 0.61800003 1.7148763e-38
0.048930477 -0.15622382 0.61900002 1.7240958e-38
0.050109524 -0.15622382 0.61900002 1.7332806e-38
0.051288571 -0.15622382 0.61900002 1.7240611e-38
0.052467622 -0.15622382 0.61900002 1.7240258e-38
0.053733334 -0.15647618 0.62 1.7240258e-38
0.054914284 -0.15647618 0.62 1.7148422e-38
0.056095239 -0.15647618 0.62 1.7056227e-38
0.057368573 -0.15672858 0.62100005 1.6965113e-38
0.058551431 -0.15672858 0.62100005 1.6965113e-38
0.059830479 -0.15698096 0.62200004 1.6965107e-38
0.061113339 -0.15723333 0.62300003 1.6780716e-38
0.0623 -0.15723333 0.62300003 1.6780366e-38
0.063486665 -0.15723333 0.62300003 1.6780366e-38
0.064673334 -0.15723333 0.62300003 1.6688526e-38
0.065859996 -0.15723333 0.62300003 1.6688526e-38
0.067154288 -0.15748571 0.62400001 1.6779996e-38
0.068452381 -0.15773809 0.625 1.6595604e-38
0.069977149 -0.15849523 0.62800002 1.6595604e-38
0.071173333 -0.15849523 0.62800002 1.6411213e-38
0.072484761 -0.15874761 0.62900001 1.6318667e-38
0.073800005 -0.15900001 0.63000005 1.6226471e-38
0.075238094 -0.15950477 0.63200003 1.613391e-38
0.076804765 -0.16026191 0.63500005 1.6041714e-38
0.078137144 -0.1605143 0.63600004 1.5949156e-38
0.079473339 -0.16076668 0.63700002 1.5211591e-38
0.080686666 -0.16076668 0.63700002 1.3924805e-38
-0.0055200006 -0.16130668 0.64400005 1.4937156e-38
-0.0042866664 -0.16105619 0.64300001 1.1616708e-38
-0.0030619048 -0.16105619 0.64300001 1.3184034e-38
-0.0018342858 -0.16080572 0.64200002 1.447331e-38
-0.00061142858 -0.16080572 0.64200002 1.3366962e-38
0.00061047624 -0.16055524 0.64100003 1.2629732e-38
0.0018314286 -0.16055524 0.64100003 1.2814123e-38
0.0030285716 -0.15930286 0.63600004 1.3089278e-38
0.0042266669 -0.15880191 0.634 1.3181474e-38
0.0054085716 -0.15805049 0.63100004 1.3089641e-38
0.0066000009 -0.15780002 0.63000005 1.3550619e-38
0.0077876188 -0.15754953 0.62900001 1.3643181e-38
0.008985715 -0.15754953 0.62900001 1.3919767e-38
0.010167619 -0.15729904 0.62800002 1.3828291e-38
0.01136381 -0.15729904 0.62800002 1.4289269e-38
0.01254 -0.15704858 0.62700003 1.4105957e-38
0.013734286 -0.15704858 0.62700003 1.4290348e-38
0.014928573 -0.15704858 0.62700003 1.4473304e-38
0.016122857 -0.15704858 0.62700003 1.4749891e-38
0.017261904 -0.15654762 0.625 1.475061e-38
0.018422857 -0.15629715 0.62400001 1.4842806e-38
0.019579999 -0.15604667 0.62300003 1.5118676e-38
0.020766666 -0.15604667 0.62300003 1.5026481e-38
0.021953333 -0.15604667 0.62300003 1.4934651e-38
0.023102859 -0.1557962 0.62200004 1.5487825e-38
0.024287619 -0.1557962 0.62200004 1.5580734e-38
0.025431432 -0.15554573 0.62100005 1.5672929e-38
0.026571428 -0.15529524 0.62 1.5672576e-38
0.02770762 -0.15504476 0.61900002 1.5949163e-38
0.028886668 -0.15504476 0.61900002 1.6041352e-38
0.030065713 -0.15504476 0.61900002 1.6133547e-38
0.03124476 -0.15504476 0.61900002 1.6409778e-38
0.032371432 -0.15479429 0.61800003 1.6317583e-38
0.033548571 -0.15479429 0.61800003 1.6133554e-38
0.034613334 -0.15429334 0.61600006 1.6594532e-38
0.03578667 -0.15429334 0.61600006 1.66878e-38
0.036960002 -0.15429334 0.61600006 1.66878e-38
0.038133338 -0.15429334 0.61600006 1.677928e-38
0.03930667 -0.15429334 0.61600006 1.677928e-38
0.040480006 -0.15429334 0.61600006 1.6964034e-38
0.041653335 -0.15429334 0.61600006 1.6964034e-38
0.042826667 -0.15429334 0.61600006 1.6688526e-38
0.044142857 -0.15479429 0.61800003 1.6872917e-38
0.045173336 -0.15429334 0.61600006 1.6872914e-38
0.046346672 -0.15429334 0.61600006 1.6872914e-38
0.047751427 -0.15504476 0.61900002 1.705658e-38
0.048930477 -0.15504476 0.61900002 1.705658e-38
0.050190475 -0.15529524 0.62 1.705551e-38
0.051371425 -0.15529524 0.62 1.705551e-38
0.05255238 -0.15529524 0.62 1.7055866e-38
0.053733334 -0.15529524 0.62 1.7148062e-38
0.054914284 -0.15529524 0.62 1.7056227e-38
0.056185719 -0.15554573 0.62100005 1.7056227e-38
0.057368573 -0.15554573 0.62100005 1.6872914e-38
0.058645718 -0.1557962 0.62200004 1.6872914e-38
0.05992667 -0.15604667 0.62300003 1.696511e-38
0.061113339 -0.15604667 0.62300003 1.6872914e-38
0.0623 -0.15604667 0.62300003 1.6688526e-38
0.063486665 -0.15604667 0.62300003 1.659633e-38
0.064673334 -0.15604667 0.62300003 1.6595251e-38
0.065965712 -0.15629715 0.62400001 1.6687447e-38
0.067261904 -0.15654762 0.625 1.66878e-38
0.068671428 -0.15704858 0.62700003 1.6595604e-38
0.069977149 -0.15729904 0.62800002 1.6135349e-38
0.071173333 -0.15729904 0.62800002 1.6135349e-38
0.072484761 -0.15754953 0.62900001 1.613427e-38
0.07391715 -0.15805049 0.63100004 1.613427e-38
0.075238094 -0.15830095 0.63200003 1.5949519e-38
0.076683804 -0.15880191 0.634 1.5857323e-38
0.078137144 -0.15930286 0.63600004 1.5764409e-38
0.079473339 -0.15955333 0.63700002 1.5026844e-38
0.080813333 -0.15980381 0.63800001 1.337271e-38
-0.0067780954 -0.16082571 0.64700001 2.1391567e-38
-0.005537143 -0.16057715 0.64600003 1.8256915e-38
-0.0042866664 -0.15983142 0.64300001 1.3004012e-38
-0.0030619048 -0.15983142 0.64300001 9.7771649e-39
-0.0018342858 -0.15958287 0.64200002 1.0420682e-38
-0.00061142858 -0.15958287 0.64200002 1.1342638e-38
0.00061142858 -0.15958287 0.64200002 1.2536823e-38
0.0018314286 -0.15933429 0.64100003 1.2721214e-38
0.0030476192 -0.15908572 0.64000005 1.2812691e-38
0.0042400002 -0.15809143 0.63600004 1.3273669e-38
0.0054342854 -0.15759428 0.634 1.3181837e-38
0.0066104764 -0.15684858 0.63100004 1.3366228e-38
0.0078000003 -0.1566 0.63000005 1.3642815e-38
0.008985715 -0.15635143 0.62900001 1.3827206e-38
0.010183809 -0.15635143 0.62900001 1.3735742e-38
0.01136381 -0.15610287 0.62800002 1.4104524e-38
0.012560001 -0.15610287 0.62800002 1.4196717e-38
0.013734286 -0.15585428 0.62700003 1.4381109e-38
0.014928573 -0.15585428 0.62700003 1.4381109e-38
0.016122857 -0.15585428 0.62700003 1.45655e-38
0.017317142 -0.15585428 0.62700003 1.4657695e-38
0.01845238 -0.15535714 0.625 1.4934282e-38
0.019579999 -0.15486 0.62300003 1.4842808e-38
0.020766666 -0.15486 0.62300003 1.4842808e-38
0.021953333 -0.15486 0.62300003 1.5026491e-38
0.023102859 -0.15461144 0.62200004 1.5487469e-38
0.024287619 -0.15461144 0.62200004 1.5488175e-38
0.025472382 -0.15461144 0.62200004 1.5580371e-38
0.026614288 -0.15436286 0.62100005 1.5672216e-38
0.027797144 -0.15436286 0.62100005 1.6040998e-38
0.028933333 -0.15411429 0.62 1.6041349e-38
0.030114286 -0.15411429 0.62 1.5949153e-38
0.03124476 -0.15386572 0.61900002 1.6225743e-38
0.032423813 -0.15386572 0.61900002 1.6317938e-38
0.033602856 -0.15386572 0.61900002 1.622575e-38
0.034725714 -0.15361714 0.61800003 1.6594532e-38
0.035902858 -0.15361714 0.61800003 1.6594885e-38
0.037080001 -0.15361714 0.61800003 1.6594885e-38
0.038133338 -0.15312001 0.61600006 1.6503056e-38
0.03930667 -0.15312001 0.61600006 1.6503056e-38
0.040611431 -0.15361714 0.61800003 1.6503779e-38
0.041788574 -0.15361714 0.61800003 1.668817e-38
0.042965718 -0.15361714 0.61800003 1.6688526e-38
0.044142857 -0.15361714 0.61800003 1.6872917e-38
0.04532 -0.15361714 0.61800003 1.6964034e-38
0.046497144 -0.15361714 0.61800003 1.6871838e-38
0.047751427 -0.15386572 0.61900002 1.6964031e-38
0.048930477 -0.15386572 0.61900002 1.7056227e-38
0.050190475 -0.15411429 0.62 1.6964037e-38
0.051371425 -0.15411429 0.62 1.6871841e-38
0.05255238 -0.15411429 0.62 1.6963318e-38
0.053733334 -0.15411429 0.62 1.6963318e-38
0.055002861 -0.15436286 0.62100005 1.6964031e-38
0.056276195 -0.15461144 0.62200004 1.7056227e-38
0.057460956 -0.15461144 0.62200004 1.7056582e-38
0.058645718 -0.15461144 0.62200004 1.6872191e-38
0.05992667 -0.15486 0.62300003 1.6780716e-38
0.061113339 -0.15486 0.62300003 1.6780716e-38
0.0623 -0.15486 0.62300003 1.6596327e-38
0.063588567 -0.15510857 0.62400001 1.6504132e-38
0.064777143 -0.15510857 0.62400001 1.6595254e-38
0.065965712 -0.15510857 0.62400001 1.6503058e-38
0.067261904 -0.15535714 0.625 1.6595604e-38
0.068671428 -0.15585428 0.62700003 1.6411213e-38
0.069977149 -0.15610287 0.62800002 1.6319017e-38
0.071286663 -0.15635143 0.62900001 1.6226822e-38
0.072484761 -0.15635143 0.62900001 1.6133907e-38
0.07391715 -0.15684858 0.63100004 1.6041712e-38
0.075238094 -0.15709715 0.63200003 1.5765125e-38
0.076683804 -0.15759428 0.634 1.5672929e-38
0.078137144 -0.15809143 0.63600004 1.5396345e-38
-0.0067780954 -0.15959333 0.64700001 2.1207531e-38
-0.005537143 -0.15934667 0.64600003 2.0008988e-38
-0.004306667 -0.15934667 0.64600003 1.6783294e-38
-0.0030666669 -0.15885335 0.64400005 1.1620339e-38
-0.0018371429 -0.15860666 0.64300001 8.7626066e-39
-0.00061142858 -0.15836 0.64200002 9.5923672e-39
0.00061142858 -0.15836 0.64200002 1.1338267e-38
0.0018314286 -0.15811335 0.64100003 1.2444615e-38
0.0030476192 -0.15786667 0.64000005 1.2720846e-38
0.0042666672 -0.15786667 0.64000005 1.3181824e-38
0.0054428577 -0.15663335 0.63500005 1.3090357e-38
0.0066209524 -0.15589334 0.63200003 1.3274748e-38
0.0078123817 -0.15564668 0.63100004 1.3366944e-38
0.0090000005 -0.15540001 0.63000005 1.3551335e-38
0.010183809 -0.15515333 0.62900001 1.3643181e-38
0.01136381 -0.15490668 0.62800002 1.3919767e-38
0.012560001 -0.15490668 0.62800002 1.3920486e-38
0.01375619 -0.15490668 0.62800002 1.4381464e-38
0.014928573 -0.15466 0.62700003 1.4381827e-38
0.016122857 -0.15466 0.62700003 1.4474023e-38
0.017317142 -0.15466 0.62700003 1.45655e-38
0.01845238 -0.15416667 0.625 1.4749891e-38
0.019611429 -0.15391999 0.62400001 1.4842087e-38
0.020766666 -0.15367334 0.62300003 1.5026478e-38
0.021953333 -0.15367334 0.62300003 1.4934651e-38
0.02314 -0.15367334 0.62300003 1.5026847e-38
0.024287619 -0.15342668 0.62200004 1.4934651e-38
0.025472382 -0.15342668 0.62200004 1.5487825e-38
0.026657144 -0.15342668 0.62200004 1.5488178e-38
0.027797144 -0.15318002 0.62100005 1.585696e-38
0.028980002 -0.15318002 0.62100005 1.6041349e-38
0.03016286 -0.15318002 0.62100005 1.5949153e-38
0.031345718 -0.15318002 0.62100005 1.5949153e-38
0.03247619 -0.15293333 0.62 1.622574e-38
0.033657141 -0.15293333 0.62 1.613391e-38
0.034781903 -0.15268667 0.61900002 1.6410497e-38
0.035960954 -0.15268667 0.61900002 1.6410494e-38
0.037080001 -0.15244001 0.61800003 1.6410494e-38
0.038257144 -0.15244001 0.61800003 1.6318662e-38
0.039434288 -0.15244001 0.61800003 1.6410857e-38
0.040611431 -0.15244001 0.61800003 1.6227548e-38
0.041788574 -0.15244001 0.61800003 1.659633e-38
0.042965718 -0.15244001 0.61800003 1.6688523e-38
0.044142857 -0.15244001 0.61800003 1.6780719e-38
0.04532 -0.15244001 0.61800003 1.6779642e-38
0.046497144 -0.15244001 0.61800003 1.6779642e-38
0.047751427 -0.15268667 0.61900002 1.6779642e-38
0.048930477 -0.15268667 0.61900002 1.6871838e-38
0.050190475 -0.15293333 0.62 1.6871838e-38
0.051371425 -0.15293333 0.62 1.6871838e-38
0.05255238 -0.15293333 0.62 1.6779642e-38
0.053820003 -0.15318002 0.62100005 1.6779642e-38
0.055002861 -0.15318002 0.62100005 1.6871838e-38
0.056276195 -0.15342668 0.62200004 1.6871838e-38
0.057460956 -0.15342668 0.62200004 1.6871835e-38
0.058740001 -0.15367334 0.62300003 1.6871835e-38
0.05992667 -0.15367334 0.62300003 1.668852e-38
0.061113339 -0.15367334 0.62300003 1.668852e-38
0.062400002 -0.15391999 0.62400001 1.6504132e-38
0.063588567 -0.15391999 0.62400001 1.6411936e-38
0.064777143 -0.15391999 0.62400001 1.6319743e-38
0.066071428 -0.15416667 0.625 1.6227548e-38
0.067477144 -0.15466 0.62700003 1.6410857e-38
0.068780951 -0.15490668 0.62800002 1.6226466e-38
