# .PCD v0.7 - Point Cloud Data file format
VERSION 0.7
FIELDS x y z rgb
SIZE 4 4 4 4
TYPE F F F F
COUNT 1 1 1 1
WIDTH 991
HEIGHT 1
VIEWPOINT 0 0 0 1 0 0 0
POINTS 991
DATA ascii
0.060792383 -0.18237714 0.63200003 1.5949529e-38
0.06219238 -0.18295428 0.634 1.5857333e-38
0.063500002 -0.18324287 0.63500005 1.5857689e-38
0.064811431 -0.18353143 0.63600004 1.5488906e-38
0.066126674 -0.18381999 0.63700002 1.4661311e-38
0.067340001 -0.18381999 0.63700002 1.7334984e-38
0.079523817 -0.19276571 0.66800004 1.9547313e-38
0.080796197 -0.19276571 0.66800004 1.9547313e-38
0.082068577 -0.19276571 0.66800004 1.9916089e-38
0.083340958 -0.19276571 0.66800004 1.9731698e-38
0.084613338 -0.19276571 0.66800004 1.8994127e-38
0.085885718 -0.19276571 0.66800004 1.6873628e-38
0.087158099 -0.19276571 0.66800004 1.5675463e-38
0.088430479 -0.19276571 0.66800004 1.6136441e-38
0.08970286 -0.19276571 0.66800004 1.7794868e-38
0.090975247 -0.19276571 0.66800004 1.9362194e-38
0.092247628 -0.19276571 0.66800004 1.9362559e-38
0.093520008 -0.19276571 0.66800004 1.8993777e-38
0.094792388 -0.19276571 0.66800004 1.8625357e-38
0.096064761 -0.19276571 0.66800004 1.8717553e-38
-0.027685715 -0.18518668 0.64600003 1.9639502e-38
-0.02645524 -0.18518668 0.64600003 1.954695e-38
-0.025224764 -0.18518668 0.64600003 1.5951321e-38
-0.023920001 -0.18461335 0.64400005 1.2356812e-38
-0.022622859 -0.18404 0.64200002 1.1619247e-38
-0.021200001 -0.18232 0.63600004 1.2814877e-38
-0.019925715 -0.18174666 0.634 1.3275855e-38
-0.018659048 -0.18117334 0.63200003 1.3459165e-38
-0.017455239 -0.18117334 0.63200003 1.3920143e-38
-0.016225714 -0.18088669 0.63100004 1.392013e-38
-0.015000001 -0.18060002 0.63000005 1.392013e-38
-0.013800002 -0.18060002 0.63000005 1.3920136e-38
-0.012580001 -0.18031333 0.62900001 1.4104527e-38
-0.01136381 -0.18002667 0.62800002 1.419673e-38
-0.010151429 -0.17974 0.62700003 1.4381121e-38
-0.0089285709 -0.17916666 0.625 1.447332e-38
-0.0077133332 -0.17859334 0.62300003 1.447332e-38
-0.0065161907 -0.17830668 0.62200004 1.4565515e-38
-0.0053228578 -0.17802002 0.62100005 1.4657711e-38
-0.0041333335 -0.17773333 0.62 1.4565515e-38
-0.002947619 -0.17744666 0.61900002 1.4749906e-38
-0.0017685716 -0.17744666 0.61900002 1.4934298e-38
-0.00058857148 -0.17716001 0.61800003 1.5210885e-38
0.00058857148 -0.17716001 0.61800003 1.5119405e-38
0.0017657144 -0.17716001 0.61800003 1.5303796e-38
0.0029428573 -0.17716001 0.61800003 1.5396345e-38
0.0041200002 -0.17716001 0.61800003 1.5488541e-38
0.005297143 -0.17716001 0.61800003 1.5488541e-38
0.0064742859 -0.17716001 0.61800003 1.5672932e-38
0.0076514287 -0.17716001 0.61800003 1.5672579e-38
0.0088000009 -0.17658667 0.61600006 1.5672579e-38
0.0099733341 -0.17658667 0.61600006 1.5764777e-38
0.011128572 -0.1763 0.61500001 1.5949169e-38
0.0123 -0.1763 0.61500001 1.5857336e-38
0.013471429 -0.1763 0.61500001 1.6133923e-38
0.014619048 -0.17601334 0.61400002 1.6134276e-38
0.015788572 -0.17601334 0.61400002 1.6226471e-38
0.016958095 -0.17601334 0.61400002 1.6318662e-38
0.018127618 -0.17601334 0.61400002 1.6410857e-38
0.019297143 -0.17601334 0.61400002 1.641051e-38
0.020466669 -0.17601334 0.61400002 1.6594901e-38
0.02163619 -0.17601334 0.61400002 1.6595251e-38
0.022805715 -0.17601334 0.61400002 1.6595251e-38
0.02397524 -0.17601334 0.61400002 1.668745e-38
0.025185714 -0.1763 0.61500001 1.668745e-38
0.026357144 -0.1763 0.61500001 1.6871122e-38
0.027528571 -0.1763 0.61500001 1.6871122e-38
0.028746668 -0.17658667 0.61600006 1.6779645e-38
0.029920002 -0.17658667 0.61600006 1.6779645e-38
0.031042857 -0.1763 0.61500001 1.6687817e-38
0.032214288 -0.1763 0.61500001 1.6687817e-38
0.033440001 -0.17658667 0.61600006 1.668817e-38
0.034613334 -0.17658667 0.61600006 1.668817e-38
0.03578667 -0.17658667 0.61600006 1.668817e-38
0.036899999 -0.1763 0.61500001 1.668817e-38
0.038071431 -0.1763 0.61500001 1.6871841e-38
0.03924286 -0.1763 0.61500001 1.6871841e-38
0.040611431 -0.17716001 0.61800003 1.6779645e-38
0.041856192 -0.17744666 0.61900002 1.6779645e-38
0.043035239 -0.17744666 0.61900002 1.6503426e-38
0.044285715 -0.17773333 0.62 1.6503426e-38
0.045466669 -0.17773333 0.62 1.6411586e-38
0.046722863 -0.17802002 0.62100005 1.6411586e-38
0.04798286 -0.17830668 0.62200004 1.6411586e-38
0.049167622 -0.17830668 0.62200004 1.631939e-38
0.050433334 -0.17859334 0.62300003 1.6410863e-38
0.051620003 -0.17859334 0.62300003 1.6410863e-38
0.052976191 -0.17916666 0.625 1.6318667e-38
0.054340001 -0.17974 0.62700003 1.6226471e-38
0.055622861 -0.18002667 0.62800002 1.6317948e-38
0.056819052 -0.18002667 0.62800002 1.6317948e-38
0.058107618 -0.18031333 0.62900001 1.622575e-38
0.059400007 -0.18060002 0.63000005 1.6133554e-38
0.060984757 -0.18174666 0.634 1.5857333e-38
0.062388573 -0.18232 0.63600004 1.5765137e-38
0.063600004 -0.18232 0.63600004 1.5673298e-38
0.06491334 -0.18260668 0.63700002 1.521232e-38
0.066230476 -0.18289334 0.63800001 1.4477284e-38
0.067445718 -0.18289334 0.63800001 1.7335348e-38
0.078251429 -0.19149333 0.66800004 1.9916086e-38
0.079523817 -0.19149333 0.66800004 2.010048e-38
0.080796197 -0.19149333 0.66800004 2.0008285e-38
0.082068577 -0.19149333 0.66800004 1.9915367e-38
0.083340958 -0.19149333 0.66800004 1.7887063e-38
0.084613338 -0.19149333 0.66800004 1.6043894e-38
0.085885718 -0.19149333 0.66800004 1.5675111e-38
0.087158099 -0.19149333 0.66800004 1.6597056e-38
0.088430479 -0.19149333 0.66800004 1.9178534e-38
0.08970286 -0.19149333 0.66800004 1.9362912e-38
0.090975247 -0.19149333 0.66800004 1.9178521e-38
0.092247628 -0.19149333 0.66800004 1.8994133e-38
0.093520008 -0.19149333 0.66800004 1.8994133e-38
-0.027685715 -0.18395619 0.64600003 1.9455111e-38
-0.02645524 -0.18395619 0.64600003 1.9639146e-38
-0.025224764 -0.18395619 0.64600003 1.6688886e-38
-0.023920001 -0.18338668 0.64400005 1.4107425e-38
-0.022622859 -0.18281715 0.64200002 1.1802534e-38
-0.021366667 -0.18253238 0.64100003 1.2814865e-38
-0.019957144 -0.18082383 0.63500005 1.3460234e-38
-0.018718094 -0.18053904 0.634 1.355207e-38
-0.017455239 -0.17996952 0.63200003 1.3736461e-38
-0.016225714 -0.17968477 0.63100004 1.3827935e-38
-0.015023811 -0.17968477 0.63100004 1.392013e-38
-0.013800002 -0.17940001 0.63000005 1.4012332e-38
-0.012580001 -0.17911524 0.62900001 1.4196723e-38
-0.01136381 -0.17883047 0.62800002 1.4105606e-38
-0.010151429 -0.17854571 0.62700003 1.4289998e-38
-0.0089285709 -0.17797619 0.625 1.4381121e-38
-0.0077257147 -0.17769143 0.62400001 1.4473317e-38
-0.0065266667 -0.17740667 0.62300003 1.4657708e-38
-0.0053228578 -0.17683716 0.62100005 1.4749904e-38
-0.0041399999 -0.17683716 0.62100005 1.475026e-38
-0.0029523808 -0.17655239 0.62 1.475026e-38
-0.0017714286 -0.17655239 0.62 1.4934295e-38
-0.00058952381 -0.17626762 0.61900002 1.5210882e-38
0.00058952381 -0.17626762 0.61900002 1.5119402e-38
0.0017685716 -0.17626762 0.61900002 1.5303794e-38
0.002947619 -0.17626762 0.61900002 1.5304149e-38
0.0041266666 -0.17626762 0.61900002 1.5396345e-38
0.005297143 -0.17598286 0.61800003 1.5303794e-38
0.0064742859 -0.17598286 0.61800003 1.5672576e-38
0.0076514287 -0.17598286 0.61800003 1.5580383e-38
0.008828572 -0.17598286 0.61800003 1.5672579e-38
0.010005714 -0.17598286 0.61800003 1.5672582e-38
0.011146668 -0.17541336 0.61600006 1.5949169e-38
0.012320001 -0.17541336 0.61600006 1.5949885e-38
0.013493334 -0.17541336 0.61600006 1.6134276e-38
0.014642857 -0.17512858 0.61500001 1.5858409e-38
0.015788572 -0.17484382 0.61400002 1.6227192e-38
0.016958095 -0.17484382 0.61400002 1.6410857e-38
0.018127618 -0.17484382 0.61400002 1.6410857e-38
0.019297143 -0.17484382 0.61400002 1.641086e-38
0.020466669 -0.17484382 0.61400002 1.6687447e-38
0.02163619 -0.17484382 0.61400002 1.6687444e-38
0.022805715 -0.17484382 0.61400002 1.6687444e-38
0.02397524 -0.17484382 0.61400002 1.668745e-38
0.025185714 -0.17512858 0.61500001 1.6779645e-38
0.026357144 -0.17512858 0.61500001 1.6871122e-38
0.027528571 -0.17512858 0.61500001 1.6871122e-38
0.028746668 -0.17541336 0.61600006 1.668745e-38
0.029920002 -0.17541336 0.61600006 1.668745e-38
0.031042857 -0.17512858 0.61500001 1.6595621e-38
0.032214288 -0.17512858 0.61500001 1.6687817e-38
0.033440001 -0.17541336 0.61600006 1.6595974e-38
0.034613334 -0.17541336 0.61600006 1.6595974e-38
0.03578667 -0.17541336 0.61600006 1.6687817e-38
0.036960002 -0.17541336 0.61600006 1.6780012e-38
0.038133338 -0.17541336 0.61600006 1.6871841e-38
0.03930667 -0.17541336 0.61600006 1.6871841e-38
0.040611431 -0.17598286 0.61800003 1.6779996e-38
0.041856192 -0.17626762 0.61900002 1.6779996e-38
0.043035239 -0.17626762 0.61900002 1.6503779e-38
0.044285715 -0.17655239 0.62 1.6503779e-38
0.045540005 -0.17683716 0.62100005 1.6411583e-38
0.046722863 -0.17683716 0.62100005 1.6319387e-38
0.04798286 -0.17712191 0.62200004 1.6319387e-38
0.049167622 -0.17712191 0.62200004 1.6319387e-38
0.050433334 -0.17740667 0.62300003 1.613392e-38
0.051702857 -0.17769143 0.62400001 1.6226116e-38
0.052976191 -0.17797619 0.625 1.6226116e-38
0.054340001 -0.17854571 0.62700003 1.6226116e-38
0.055622861 -0.17883047 0.62800002 1.6134276e-38
0.056909524 -0.17911524 0.62900001 1.604208e-38
0.058200005 -0.17940001 0.63000005 1.6041364e-38
0.059400007 -0.17940001 0.63000005 1.6041364e-38
0.060984757 -0.18053904 0.634 1.5949166e-38
0.062388573 -0.18110858 0.63600004 1.5764774e-38
0.063600004 -0.18110858 0.63600004 1.5395992e-38
0.06491334 -0.18139334 0.63700002 1.5119405e-38
0.066230476 -0.1816781 0.63800001 1.4109223e-38
0.067445718 -0.1816781 0.63800001 1.7612657e-38
0.078251429 -0.19022097 0.66800004 2.0100477e-38
0.079523817 -0.19022097 0.66800004 2.028415e-38
0.080796197 -0.19022097 0.66800004 1.9454389e-38
0.082068577 -0.19022097 0.66800004 1.8809373e-38
0.083340958 -0.19022097 0.66800004 1.6504482e-38
0.084613338 -0.19022097 0.66800004 1.4845342e-38
0.085885718 -0.19022097 0.66800004 1.6320472e-38
0.087158099 -0.19022097 0.66800004 1.7979262e-38
0.088430479 -0.19022097 0.66800004 1.9454392e-38
0.08970286 -0.19022097 0.66800004 1.9362915e-38
0.090975247 -0.19022097 0.66800004 1.9086328e-38
-0.027728571 -0.18300858 0.64700001 1.9270366e-38
-0.02645524 -0.18272573 0.64600003 1.954695e-38
-0.025224764 -0.18272573 0.64600003 1.7518647e-38
-0.023920001 -0.18216002 0.64400005 1.475352e-38
-0.022658095 -0.18187715 0.64300001 1.1342282e-38
-0.021366667 -0.18131144 0.64100003 1.2262057e-38
-0.019988572 -0.17989716 0.63600004 1.3276209e-38
-0.018718094 -0.17933144 0.634 1.3551351e-38
-0.017455239 -0.17876573 0.63200003 1.3735742e-38
-0.016225714 -0.17848286 0.63100004 1.3735739e-38
-0.015023811 -0.17848286 0.63100004 1.3827935e-38
-0.013800002 -0.17820001 0.63000005 1.3920136e-38
-0.012580001 -0.17791714 0.62900001 1.4104527e-38
-0.01136381 -0.17763428 0.62800002 1.4288919e-38
-0.010151429 -0.17735143 0.62700003 1.4381114e-38
-0.0089571439 -0.17735143 0.62700003 1.4381121e-38
-0.0077380952 -0.17678571 0.625 1.4381121e-38
-0.0065476191 -0.17678571 0.625 1.4381837e-38
-0.0053400001 -0.17622 0.62300003 1.4658424e-38
-0.0041466667 -0.17593715 0.62200004 1.475026e-38
-0.0029619047 -0.17593715 0.62200004 1.475026e-38
-0.0017742858 -0.17565429 0.62100005 1.4842102e-38
-0.00059047621 -0.17537142 0.62 1.4934298e-38
0.00059047621 -0.17537142 0.62 1.5026496e-38
0.0017685716 -0.17508857 0.61900002 1.5395279e-38
0.002947619 -0.17508857 0.61900002 1.5211598e-38
0.0041266666 -0.17508857 0.61900002 1.5303794e-38
0.0053057144 -0.17508857 0.61900002 1.5395995e-38
0.0064847618 -0.17508857 0.61900002 1.5672582e-38
0.0076514287 -0.17480572 0.61800003 1.5672579e-38
0.008828572 -0.17480572 0.61800003 1.5764774e-38
0.010005714 -0.17480572 0.61800003 1.5856254e-38
0.011182858 -0.17480572 0.61800003 1.6040645e-38
0.01236 -0.17480572 0.61800003 1.5949166e-38
0.013493334 -0.17424001 0.61600006 1.5949166e-38
0.014666668 -0.17424001 0.61600006 1.6225034e-38
0.015814286 -0.17395714 0.61500001 1.6501621e-38
0.016985714 -0.17395714 0.61500001 1.6410497e-38
0.018127618 -0.17367429 0.61400002 1.6502693e-38
0.019297143 -0.17367429 0.61400002 1.641086e-38
0.020466669 -0.17367429 0.61400002 1.6687447e-38
0.02163619 -0.17367429 0.61400002 1.6595604e-38
0.022805715 -0.17367429 0.61400002 1.6503409e-38
0.024014285 -0.17395714 0.61500001 1.6778924e-38
0.025185714 -0.17395714 0.61500001 1.6871119e-38
0.026357144 -0.17395714 0.61500001 1.6870403e-38
0.027573336 -0.17424001 0.61600006 1.6870403e-38
0.028746668 -0.17424001 0.61600006 1.6594898e-38
0.029920002 -0.17424001 0.61600006 1.6594898e-38
0.031093335 -0.17424001 0.61600006 1.6503426e-38
0.032266673 -0.17424001 0.61600006 1.6595621e-38
0.033440001 -0.17424001 0.61600006 1.659633e-38
0.034725714 -0.17480572 0.61800003 1.6688526e-38
0.035902858 -0.17480572 0.61800003 1.6595625e-38
0.037080001 -0.17480572 0.61800003 1.650343e-38
0.038257144 -0.17480572 0.61800003 1.6779645e-38
0.039434288 -0.17480572 0.61800003 1.6871841e-38
0.040742856 -0.17537142 0.62 1.6871823e-38
0.041991431 -0.17565429 0.62100005 1.6964018e-38
0.043174289 -0.17565429 0.62100005 1.6503779e-38
0.044428572 -0.17593715 0.62200004 1.6411583e-38
0.045613337 -0.17593715 0.62200004 1.6595604e-38
0.046798099 -0.17593715 0.62200004 1.6503409e-38
0.04798286 -0.17593715 0.62200004 1.6503056e-38
0.049246669 -0.17622 0.62300003 1.6503056e-38
0.050433334 -0.17622 0.62300003 1.6318311e-38
0.051702857 -0.17650285 0.62400001 1.6226116e-38
0.053145714 -0.17735143 0.62700003 1.6226116e-38
0.05442667 -0.17763428 0.62800002 1.6226116e-38
0.05571143 -0.17791714 0.62900001 1.6226106e-38
0.057000004 -0.17820001 0.63000005 1.6041714e-38
0.058292385 -0.17848286 0.63100004 1.5949169e-38
0.059494291 -0.17848286 0.63100004 1.5949169e-38
0.060984757 -0.17933144 0.634 1.5856973e-38
0.062290482 -0.17961431 0.63500005 1.5672582e-38
0.063600004 -0.17989716 0.63600004 1.5396358e-38
0.06491334 -0.18018001 0.63700002 1.4843184e-38
0.066126674 -0.18018001 0.63700002 1.4385091e-38
0.067868568 -0.1815943 0.64200002 1.8349503e-38
0.073490478 -0.18979715 0.671 2.0192323e-38
0.074768573 -0.18979715 0.671 2.0008282e-38
0.076046668 -0.18979715 0.671 2.0008282e-38
0.077209525 -0.18951429 0.67000002 1.9916086e-38
0.07848572 -0.18951429 0.67000002 1.9823891e-38
0.079761907 -0.18951429 0.67000002 1.9362549e-38
0.081038095 -0.18951429 0.67000002 1.6412289e-38
0.082068577 -0.18894859 0.66800004 1.5675813e-38
0.083340958 -0.18894859 0.66800004 1.59524e-38
0.084613338 -0.18894859 0.66800004 1.7519e-38
0.085885718 -0.18894859 0.66800004 1.9362912e-38
0.087158099 -0.18894859 0.66800004 1.9454389e-38
0.088695243 -0.18951429 0.67000002 1.9269998e-38
0.089971431 -0.18951429 0.67000002 1.8994133e-38
-0.028960953 -0.1817762 0.64700001 1.899414e-38
-0.027728571 -0.1817762 0.64700001 1.9178531e-38
-0.02645524 -0.18149525 0.64600003 1.9546597e-38
-0.025224764 -0.18149525 0.64600003 1.8809032e-38
-0.023920001 -0.18093334 0.64400005 1.5399969e-38
-0.022658095 -0.18065238 0.64300001 1.1066774e-38
-0.021366667 -0.18009049 0.64100003 1.2169851e-38
-0.019988572 -0.17868572 0.63600004 1.3368394e-38
-0.01874762 -0.17840478 0.63500005 1.3551348e-38
-0.017510476 -0.1781238 0.634 1.3735739e-38
-0.01625143 -0.17756191 0.63200003 1.3827575e-38
-0.015023811 -0.17728096 0.63100004 1.391977e-38
-0.013821905 -0.17728096 0.63100004 1.4012332e-38
-0.012600001 -0.17700002 0.63000005 1.4288919e-38
-0.011381905 -0.17671905 0.62900001 1.4196723e-38
-0.010167619 -0.17643811 0.62800002 1.4288919e-38
-0.0089714285 -0.17643811 0.62800002 1.4381114e-38
-0.0077628572 -0.17615715 0.62700003 1.447331e-38
-0.0065685716 -0.17615715 0.62700003 1.4381477e-38
-0.0053485716 -0.17531429 0.62400001 1.4658064e-38
-0.0041533331 -0.17503333 0.62300003 1.4658064e-38
-0.0029666668 -0.17503333 0.62300003 1.475026e-38
-0.001777143 -0.17475238 0.62200004 1.4842102e-38
-0.0005914286 -0.17447145 0.62100005 1.4934298e-38
0.0005914286 -0.17447145 0.62100005 1.5026491e-38
0.0017714286 -0.17419046 0.62 1.5303077e-38
0.0029523808 -0.17419046 0.62 1.5395273e-38
0.0041266666 -0.17390953 0.61900002 1.5579664e-38
0.0053057144 -0.17390953 0.61900002 1.5488185e-38
0.0064847618 -0.17390953 0.61900002 1.5672576e-38
0.0076638092 -0.17390953 0.61900002 1.5672582e-38
0.0088428566 -0.17390953 0.61900002 1.5764777e-38
0.010005714 -0.17362858 0.61800003 1.5764777e-38
0.011182858 -0.17362858 0.61800003 1.5949169e-38
0.01236 -0.17362858 0.61800003 1.6040643e-38
0.013537143 -0.17362858 0.61800003 1.6132838e-38
0.014666668 -0.17306668 0.61600006 1.6224318e-38
0.015840001 -0.17306668 0.61600006 1.6316513e-38
0.017013336 -0.17306668 0.61600006 1.6040643e-38
0.018157143 -0.17278571 0.61500001 1.6593816e-38
0.019328572 -0.17278571 0.61500001 1.641086e-38
0.020499999 -0.17278571 0.61500001 1.6503056e-38
0.021671429 -0.17278571 0.61500001 1.6503053e-38
0.022842858 -0.17278571 0.61500001 1.6503053e-38
0.024014285 -0.17278571 0.61500001 1.6686728e-38
0.025185714 -0.17278571 0.61500001 1.6686728e-38
0.026400004 -0.17306668 0.61600006 1.650234e-38
0.027573336 -0.17306668 0.61600006 1.6778926e-38
0.028746668 -0.17306668 0.61600006 1.668745e-38
0.030017143 -0.17362858 0.61800003 1.668745e-38
0.031194286 -0.17362858 0.61800003 1.668745e-38
0.032371432 -0.17362858 0.61800003 1.6779645e-38
0.033548571 -0.17362858 0.61800003 1.6595974e-38
0.034725714 -0.17362858 0.61800003 1.6595974e-38
0.035902858 -0.17362858 0.61800003 1.6319034e-38
0.037140001 -0.17390953 0.61900002 1.6503426e-38
0.038319048 -0.17390953 0.61900002 1.668745e-38
0.039498094 -0.17390953 0.61900002 1.6779645e-38
0.040808573 -0.17447145 0.62100005 1.6779996e-38
0.042059049 -0.17475238 0.62200004 1.6779996e-38
0.043243811 -0.17475238 0.62200004 1.6411586e-38
0.044428572 -0.17475238 0.62200004 1.6411586e-38
0.045613337 -0.17475238 0.62200004 1.6595251e-38
0.046798099 -0.17475238 0.62200004 1.6503056e-38
0.04806 -0.17503333 0.62300003 1.6503058e-38
0.049246669 -0.17503333 0.62300003 1.6503058e-38
0.050514285 -0.17531429 0.62400001 1.6318667e-38
0.051785715 -0.17559524 0.625 1.6318667e-38
0.053145714 -0.17615715 0.62700003 1.613392e-38
0.05442667 -0.17643811 0.62800002 1.613392e-38
0.05571143 -0.17671905 0.62900001 1.6133554e-38
0.057000004 -0.17700002 0.63000005 1.6041359e-38
0.058292385 -0.17728096 0.63100004 1.585697e-38
0.059494291 -0.17728096 0.63100004 1.5764774e-38
0.061080955 -0.17840478 0.63500005 1.5672582e-38
0.062290482 -0.17840478 0.63500005 1.5672582e-38
0.063699998 -0.17896667 0.63700002 1.5488185e-38
0.06491334 -0.17896667 0.63700002 1.4935011e-38
0.066645719 -0.18037143 0.64200002 1.484499e-38
0.067868568 -0.18037143 0.64200002 1.9085989e-38
0.073600002 -0.18880002 0.67200005 1.9823906e-38
0.074768573 -0.18851905 0.671 1.9824256e-38
0.076046668 -0.18851905 0.671 1.9547669e-38
0.077209525 -0.1882381 0.67000002 1.954695e-38
0.07848572 -0.1882381 0.67000002 1.9362559e-38
0.079761907 -0.1882381 0.67000002 1.7889568e-38
0.081038095 -0.1882381 0.67000002 1.5676872e-38
0.082068577 -0.18767621 0.66800004 1.438544e-38
0.083340958 -0.18767621 0.66800004 1.6966918e-38
0.084613338 -0.18767621 0.66800004 1.8624994e-38
0.085885718 -0.18767621 0.66800004 1.9454755e-38
0.087158099 -0.18767621 0.66800004 1.9362915e-38
-0.028960953 -0.18054381 0.64700001 1.9362199e-38
-0.027728571 -0.18054381 0.64700001 1.954659e-38
-0.02645524 -0.18026477 0.64600003 1.9730991e-38
-0.025224764 -0.18026477 0.64600003 1.8993426e-38
-0.023920001 -0.17970668 0.64400005 1.6781082e-38
-0.022658095 -0.17942762 0.64300001 1.069617e-38
-0.021366667 -0.17886953 0.64100003 1.1523787e-38
-0.020114286 -0.17859049 0.64000005 1.3183308e-38
-0.018777143 -0.17747429 0.63600004 1.3459155e-38
-0.017538097 -0.17719525 0.63500005 1.3643546e-38
-0.016302858 -0.17691618 0.634 1.3643196e-38
-0.01504762 -0.1763581 0.63200003 1.3735392e-38
-0.013821905 -0.17607905 0.63100004 1.3735036e-38
-0.012620001 -0.17607905 0.63100004 1.4196014e-38
-0.011400001 -0.17580001 0.63000005 1.4196723e-38
-0.010183809 -0.17552094 0.62900001 1.4196723e-38
-0.0089714285 -0.17524192 0.62800002 1.4381114e-38
-0.0077752387 -0.17524192 0.62800002 1.447331e-38
-0.0065685716 -0.17496286 0.62700003 1.4381121e-38
-0.005357143 -0.17440476 0.625 1.4473317e-38
-0.00416 -0.17412572 0.62400001 1.4565512e-38
-0.0029666668 -0.17384666 0.62300003 1.4657708e-38
-0.001777143 -0.17356764 0.62200004 1.4657714e-38
-0.00059238099 -0.17356764 0.62200004 1.4934301e-38
0.0005914286 -0.17328858 0.62100005 1.5026491e-38
0.0017742858 -0.17328858 0.62100005 1.5118686e-38
0.0029523808 -0.17300953 0.62 1.5210885e-38
0.0041333335 -0.17300953 0.62 1.5487472e-38
0.0053142854 -0.17300953 0.62 1.5487825e-38
0.0064952383 -0.17300953 0.62 1.558002e-38
0.0076638092 -0.17273048 0.61900002 1.5671863e-38
0.0088428566 -0.17273048 0.61900002 1.5671863e-38
0.010005714 -0.17245144 0.61800003 1.5672226e-38
0.011182858 -0.17245144 0.61800003 1.5856617e-38
0.01236 -0.17245144 0.61800003 1.5856973e-38
0.013537143 -0.17245144 0.61800003 1.5949169e-38
0.014714287 -0.17245144 0.61800003 1.6040648e-38
0.015840001 -0.17189336 0.61600006 1.6132844e-38
0.017013336 -0.17189336 0.61600006 1.613356e-38
0.01818667 -0.17189336 0.61600006 1.6502342e-38
0.01936 -0.17189336 0.61600006 1.6410857e-38
0.020533334 -0.17189336 0.61600006 1.6410857e-38
0.021671429 -0.17161429 0.61500001 1.6410863e-38
0.022842858 -0.17161429 0.61500001 1.6503058e-38
0.024053335 -0.17189336 0.61600006 1.6594535e-38
0.025226669 -0.17189336 0.61600006 1.650234e-38
0.026400004 -0.17189336 0.61600006 1.6594538e-38
0.027573336 -0.17189336 0.61600006 1.6871125e-38
0.028840002 -0.17245144 0.61800003 1.6778924e-38
0.030017143 -0.17245144 0.61800003 1.6871119e-38
0.031194286 -0.17245144 0.61800003 1.6779645e-38
0.032371432 -0.17245144 0.61800003 1.668745e-38
0.033548571 -0.17245144 0.61800003 1.6779645e-38
0.034781903 -0.17273048 0.61900002 1.668745e-38
0.035960954 -0.17273048 0.61900002 1.6687097e-38
0.0372 -0.17300953 0.62 1.6779292e-38
0.038380951 -0.17300953 0.62 1.668745e-38
0.039625715 -0.17328858 0.62100005 1.668745e-38
0.040874287 -0.17356764 0.62200004 1.6595254e-38
0.042059049 -0.17356764 0.62200004 1.668745e-38
0.043243811 -0.17356764 0.62200004 1.6594898e-38
0.044428572 -0.17356764 0.62200004 1.6594898e-38
0.045613337 -0.17356764 0.62200004 1.6503058e-38
0.046798099 -0.17356764 0.62200004 1.6503058e-38
0.04806 -0.17384666 0.62300003 1.6410863e-38
0.049246669 -0.17384666 0.62300003 1.6318667e-38
0.050514285 -0.17412572 0.62400001 1.6318667e-38
0.051785715 -0.17440476 0.625 1.6226471e-38
0.053230479 -0.17524192 0.62800002 1.613356e-38
0.054513335 -0.17552094 0.62900001 1.613356e-38
0.055800002 -0.17580001 0.63000005 1.6133554e-38
0.05709048 -0.17607905 0.63100004 1.5949163e-38
0.058384765 -0.1763581 0.63200003 1.5949166e-38
0.059588574 -0.1763581 0.63200003 1.5764774e-38
0.061080955 -0.17719525 0.63500005 1.5764774e-38
0.062388573 -0.17747429 0.63600004 1.5580383e-38
0.0638 -0.17803238 0.63800001 1.5396345e-38
0.065015234 -0.17803238 0.63800001 1.5027563e-38
0.066645719 -0.17914857 0.64200002 1.5213773e-38
0.067868568 -0.17914857 0.64200002 1.9546967e-38
0.073600002 -0.18752001 0.67200005 2.0008282e-38
0.074768573 -0.18724094 0.671 2.0008282e-38
0.076046668 -0.18724094 0.671 1.9362912e-38
0.077209525 -0.1869619 0.67000002 1.7887822e-38
0.07848572 -0.1869619 0.67000002 1.5306344e-38
0.079761907 -0.1869619 0.67000002 1.4847485e-38
0.081038095 -0.1869619 0.67000002 1.641481e-38
0.082068577 -0.18640383 0.66800004 1.8348748e-38
0.083340958 -0.18640383 0.66800004 1.9547291e-38
0.084613338 -0.18640383 0.66800004 1.9362562e-38
0.08614286 -0.1869619 0.67000002 1.9085975e-38
-0.027728571 -0.17931144 0.64700001 1.9362559e-38
-0.02645524 -0.17903429 0.64600003 1.9731345e-38
-0.025224764 -0.17903429 0.64600003 1.982354e-38
-0.023920001 -0.17848001 0.64400005 1.6873657e-38
-0.022658095 -0.17820287 0.64300001 1.069655e-38
-0.021400001 -0.17792572 0.64200002 1.134009e-38
-0.020145716 -0.17764857 0.64100003 1.3184003e-38
-0.018836191 -0.17681715 0.63800001 1.3459152e-38
-0.017538097 -0.17598572 0.63500005 1.3551348e-38
-0.016302858 -0.17570858 0.634 1.3551348e-38
-0.015095239 -0.17570858 0.634 1.3735739e-38
-0.013843809 -0.17515428 0.63200003 1.3735742e-38
-0.012620001 -0.17487715 0.63100004 1.419672e-38
-0.011418096 -0.17487715 0.63100004 1.419672e-38
-0.010183809 -0.17432286 0.62900001 1.4288916e-38
-0.0089714285 -0.17404571 0.62800002 1.4197799e-38
-0.0077752387 -0.17404571 0.62800002 1.4289995e-38
-0.0065685716 -0.17376858 0.62700003 1.4382193e-38
-0.005357143 -0.17321429 0.625 1.4474389e-38
-0.00416 -0.17293714 0.62400001 1.4657345e-38
-0.0029666668 -0.17266001 0.62300003 1.4565149e-38
-0.00178 -0.17266001 0.62300003 1.447332e-38
-0.00059238099 -0.17238286 0.62200004 1.5026493e-38
0.0005914286 -0.17210573 0.62100005 1.5119042e-38
0.0017742858 -0.17210573 0.62100005 1.5119042e-38
0.0029571431 -0.17210573 0.62100005 1.5118686e-38
0.0041399999 -0.17210573 0.62100005 1.5395273e-38
0.0053142854 -0.17182857 0.62 1.5395273e-38
0.0064952383 -0.17182857 0.62 1.5579664e-38
0.0076761907 -0.17182857 0.62 1.5579664e-38
0.0088571431 -0.17182857 0.62 1.567186e-38
0.010021905 -0.17155142 0.61900002 1.5764058e-38
0.011200953 -0.17155142 0.61900002 1.594845e-38
0.01238 -0.17155142 0.61900002 1.5948447e-38
0.013559048 -0.17155142 0.61900002 1.6132838e-38
0.014714287 -0.17127429 0.61800003 1.6041361e-38
0.015891429 -0.17127429 0.61800003 1.6225753e-38
0.017068572 -0.17127429 0.61800003 1.6226471e-38
0.01818667 -0.17072001 0.61600006 1.6318667e-38
0.01936 -0.17072001 0.61600006 1.641086e-38
0.020533334 -0.17072001 0.61600006 1.641086e-38
0.021671429 -0.17044285 0.61500001 1.6410857e-38
0.022842858 -0.17044285 0.61500001 1.6503053e-38
0.024053335 -0.17072001 0.61600006 1.6594532e-38
0.025226669 -0.17072001 0.61600006 1.6594532e-38
0.026400004 -0.17072001 0.61600006 1.6778926e-38
0.027662858 -0.17127429 0.61800003 1.6963318e-38
0.028840002 -0.17127429 0.61800003 1.6687447e-38
0.030017143 -0.17127429 0.61800003 1.6687447e-38
0.03124476 -0.17155142 0.61900002 1.6595621e-38
0.032423813 -0.17155142 0.61900002 1.6503426e-38
0.033602856 -0.17155142 0.61900002 1.6687094e-38
0.034838095 -0.17182857 0.62 1.6779289e-38
0.036019046 -0.17182857 0.62 1.6779289e-38
0.037260003 -0.17210573 0.62100005 1.6779289e-38
0.038442858 -0.17210573 0.62100005 1.668745e-38
0.039689526 -0.17238286 0.62200004 1.668745e-38
0.040874287 -0.17238286 0.62200004 1.6503058e-38
0.042059049 -0.17238286 0.62200004 1.6503058e-38
0.043243811 -0.17238286 0.62200004 1.6594549e-38
0.044500001 -0.17266001 0.62300003 1.6502354e-38
0.045686666 -0.17266001 0.62300003 1.6594535e-38
0.046873335 -0.17266001 0.62300003 1.650234e-38
0.04806 -0.17266001 0.62300003 1.6410144e-38
0.049325712 -0.17293714 0.62400001 1.6410144e-38
0.050514285 -0.17293714 0.62400001 1.6317945e-38
0.051951431 -0.17376858 0.62700003 1.622575e-38
0.053230479 -0.17404571 0.62800002 1.6133557e-38
0.054600004 -0.17460002 0.63000005 1.6133557e-38
0.055888575 -0.17487715 0.63100004 1.5949169e-38
0.057180952 -0.17515428 0.63200003 1.5949169e-38
0.058384765 -0.17515428 0.63200003 1.585697e-38
0.059777141 -0.17570858 0.634 1.5764774e-38
0.061177142 -0.17626286 0.63600004 1.5672579e-38
0.062486667 -0.17654 0.63700002 1.5303796e-38
0.0638 -0.17681715 0.63800001 1.5027207e-38
0.065320954 -0.17764857 0.64100003 1.5119402e-38
0.066645719 -0.17792572 0.64200002 1.549072e-38
0.067974284 -0.17820287 0.64300001 1.9547327e-38
0.069199048 -0.17820287 0.64300001 2.0377074e-38
0.073600002 -0.18624002 0.67200005 1.9731705e-38
0.074768573 -0.18596286 0.671 1.9639146e-38
0.076046668 -0.18596286 0.671 1.871719e-38
0.077209525 -0.18568571 0.67000002 1.6691753e-38
0.078251429 -0.18513145 0.66800004 1.4755645e-38
0.079523817 -0.18513145 0.66800004 1.3649304e-38
0.081038095 -0.18568571 0.67000002 1.7613716e-38
0.082437143 -0.18596286 0.671 1.9086325e-38
-0.027728571 -0.17807905 0.64700001 1.9731342e-38
-0.026496191 -0.17807905 0.64700001 1.9454402e-38
-0.025224764 -0.17780383 0.64600003 1.9730989e-38
-0.023994286 -0.17780383 0.64600003 1.8440943e-38
-0.022693336 -0.17725335 0.64400005 1.0973097e-38
-0.021433335 -0.1769781 0.64300001 1.0971315e-38
-0.020145716 -0.17642762 0.64100003 1.2723032e-38
-0.018836191 -0.1756019 0.63800001 1.3366594e-38
-0.017565714 -0.17505144 0.63600004 1.3550985e-38
-0.016328571 -0.1747762 0.63500005 1.3643183e-38
-0.015095239 -0.17450094 0.634 1.391977e-38
-0.013843809 -0.17395048 0.63200003 1.3735742e-38
-0.01264 -0.17395048 0.63200003 1.419672e-38
-0.011418096 -0.17367524 0.63100004 1.4104522e-38
-0.010200001 -0.17340001 0.63000005 1.4196717e-38
-0.008985715 -0.17312476 0.62900001 1.4288916e-38
-0.0077752387 -0.17284952 0.62800002 1.4381111e-38
-0.0065790475 -0.17284952 0.62800002 1.4473307e-38
-0.0053742859 -0.17257428 0.62700003 1.4565503e-38
-0.0041666664 -0.1720238 0.625 1.4565505e-38
-0.0029714287 -0.17174856 0.62400001 1.4565505e-38
-0.00178 -0.17147334 0.62300003 1.4565515e-38
-0.00059333333 -0.17147334 0.62300003 1.5026493e-38
0.00059238099 -0.1711981 0.62200004 1.5118676e-38
0.001777143 -0.1711981 0.62200004 1.5303068e-38
0.0029619047 -0.1711981 0.62200004 1.5210882e-38
0.0041399999 -0.17092286 0.62100005 1.5487469e-38
0.0053228578 -0.17092286 0.62100005 1.5395629e-38
0.0065057147 -0.17092286 0.62100005 1.5487825e-38
0.0076761907 -0.17064762 0.62 1.558002e-38
0.0088571431 -0.17064762 0.62 1.5672216e-38
0.010021905 -0.17037238 0.61900002 1.5671866e-38
0.011200953 -0.17037238 0.61900002 1.5764061e-38
0.01238 -0.17037238 0.61900002 1.5764421e-38
0.013559048 -0.17037238 0.61900002 1.5948813e-38
0.014738095 -0.17037238 0.61900002 1.6041364e-38
0.015917145 -0.17037238 0.61900002 1.613356e-38
0.017068572 -0.17009714 0.61800003 1.6226106e-38
0.018245716 -0.17009714 0.61800003 1.6318301e-38
0.01936 -0.16954668 0.61600006 1.6410141e-38
0.020533334 -0.16954668 0.61600006 1.6502337e-38
0.021706669 -0.16954668 0.61600006 1.6502337e-38
0.022880001 -0.16954668 0.61600006 1.6871119e-38
0.024053335 -0.16954668 0.61600006 1.6594888e-38
0.025226669 -0.16954668 0.61600006 1.6502693e-38
0.026485715 -0.17009714 0.61800003 1.6686378e-38
0.027662858 -0.17009714 0.61800003 1.705516e-38
0.028840002 -0.17009714 0.61800003 1.668745e-38
0.030065713 -0.17037238 0.61900002 1.668745e-38
0.03124476 -0.17037238 0.61900002 1.6595628e-38
0.032423813 -0.17037238 0.61900002 1.6503433e-38
0.033602856 -0.17037238 0.61900002 1.668745e-38
0.034838095 -0.17064762 0.62 1.668745e-38
0.036077145 -0.17092286 0.62100005 1.6779645e-38
0.037319999 -0.1711981 0.62200004 1.6871841e-38
0.038504764 -0.1711981 0.62200004 1.6687447e-38
0.039689526 -0.1711981 0.62200004 1.6595251e-38
0.040940002 -0.17147334 0.62300003 1.6594898e-38
0.042126667 -0.17147334 0.62300003 1.6502702e-38
0.043313332 -0.17147334 0.62300003 1.6502e-38
0.044500001 -0.17147334 0.62300003 1.6409805e-38
0.045686666 -0.17147334 0.62300003 1.6410863e-38
0.046873335 -0.17147334 0.62300003 1.6318667e-38
0.04806 -0.17147334 0.62300003 1.6318664e-38
0.049325712 -0.17174856 0.62400001 1.6318664e-38
0.050595239 -0.1720238 0.625 1.6318301e-38
0.051951431 -0.17257428 0.62700003 1.6226106e-38
0.053315237 -0.17312476 0.62900001 1.5949531e-38
0.054600004 -0.17340001 0.63000005 1.5949531e-38
0.055888575 -0.17367524 0.63100004 1.5949166e-38
0.057180952 -0.17395048 0.63200003 1.585697e-38
0.058569524 -0.17450094 0.634 1.5764772e-38
0.059871431 -0.1747762 0.63500005 1.558038e-38
0.061177142 -0.17505144 0.63600004 1.5488188e-38
0.062584765 -0.1756019 0.63800001 1.4935014e-38
0.064000003 -0.17615238 0.64000005 1.4750988e-38
0.065320954 -0.17642762 0.64100003 1.5119771e-38
0.066645719 -0.17670286 0.64200002 1.6319038e-38
0.067868568 -0.17670286 0.64200002 1.9914668e-38
0.072212376 -0.18468477 0.671 2.0007215e-38
0.073490478 -0.18468477 0.671 1.8993063e-38
0.074657142 -0.18440953 0.67000002 1.7426828e-38
0.075933337 -0.18440953 0.67000002 1.4660959e-38
0.077209525 -0.18440953 0.67000002 1.4202118e-38
0.078251429 -0.18385907 0.66800004 1.6507009e-38
0.079523817 -0.18385907 0.66800004 1.8349114e-38
-0.025224764 -0.17657334 0.64600003 1.982354e-38
-0.023994286 -0.17657334 0.64600003 1.8901235e-38
-0.022693336 -0.17602669 0.64400005 1.2078758e-38
-0.021433335 -0.17575333 0.64300001 1.0418497e-38
-0.020177143 -0.17548001 0.64200002 1.2723388e-38
-0.018895241 -0.17493334 0.64000005 1.3458789e-38
-0.017593335 -0.17411333 0.63700002 1.3550985e-38
-0.016354287 -0.17384002 0.63600004 1.3735376e-38
-0.015119049 -0.17356667 0.63500005 1.3735376e-38
-0.013843809 -0.17274667 0.63200003 1.3643546e-38
-0.01264 -0.17274667 0.63200003 1.4104524e-38
-0.01143619 -0.17274667 0.63200003 1.4104522e-38
-0.010216191 -0.17247334 0.63100004 1.4196717e-38
-0.008985715 -0.17192666 0.62900001 1.419672e-38
-0.0077752387 -0.17165335 0.62800002 1.4288916e-38
-0.0065790475 -0.17165335 0.62800002 1.4380395e-38
-0.0053742859 -0.17138 0.62700003 1.4564787e-38
-0.0041666664 -0.17083333 0.625 1.4565505e-38
-0.0029761905 -0.17083333 0.625 1.4749897e-38
-0.0017828571 -0.17056 0.62400001 1.4749904e-38
-0.00059333333 -0.17028667 0.62300003 1.4934295e-38
0.00059333333 -0.17028667 0.62300003 1.4749904e-38
0.001777143 -0.17001334 0.62200004 1.4934295e-38
0.0029619047 -0.17001334 0.62200004 1.4842102e-38
0.0041466667 -0.17001334 0.62200004 1.530308e-38
0.0053314292 -0.17001334 0.62200004 1.5395629e-38
0.0065161907 -0.17001334 0.62200004 1.5487825e-38
0.0076885722 -0.16974002 0.62100005 1.558002e-38
0.0088571431 -0.16946667 0.62 1.5672216e-38
0.010038096 -0.16946667 0.62 1.5672582e-38
0.011200953 -0.16919333 0.61900002 1.5672582e-38
0.01238 -0.16919333 0.61900002 1.5672582e-38
0.013559048 -0.16919333 0.61900002 1.5949169e-38
0.014738095 -0.16919333 0.61900002 1.5949166e-38
0.015917145 -0.16919333 0.61900002 1.6133557e-38
0.01709619 -0.16919333 0.61900002 1.6225753e-38
0.018275239 -0.16919333 0.61900002 1.6225753e-38
0.019422857 -0.16892001 0.61800003 1.5949169e-38
0.0206 -0.16892001 0.61800003 1.6410147e-38
0.021777144 -0.16892001 0.61800003 1.6410141e-38
0.022954287 -0.16892001 0.61800003 1.6502337e-38
0.02413143 -0.16892001 0.61800003 1.650234e-38
0.025308572 -0.16892001 0.61800003 1.650234e-38
0.026485715 -0.16892001 0.61800003 1.6318667e-38
0.027662858 -0.16892001 0.61800003 1.6779645e-38
0.028840002 -0.16892001 0.61800003 1.6411583e-38
0.030065713 -0.16919333 0.61900002 1.6411583e-38
0.03124476 -0.16919333 0.61900002 1.6687097e-38
0.032423813 -0.16919333 0.61900002 1.6687097e-38
0.033657141 -0.16946667 0.62 1.6778924e-38
0.034894288 -0.16974002 0.62100005 1.6871119e-38
0.036077145 -0.16974002 0.62100005 1.6779292e-38
0.037319999 -0.17001334 0.62200004 1.6779292e-38
0.038504764 -0.17001334 0.62200004 1.6595254e-38
0.039689526 -0.17001334 0.62200004 1.6595254e-38
0.040940002 -0.17028667 0.62300003 1.6502702e-38
0.042126667 -0.17028667 0.62300003 1.6410507e-38
0.043382857 -0.17056 0.62400001 1.6410155e-38
0.044571426 -0.17056 0.62400001 1.6410155e-38
0.045759998 -0.17056 0.62400001 1.6410863e-38
0.046948571 -0.17056 0.62400001 1.6318667e-38
0.048137143 -0.17056 0.62400001 1.6318667e-38
0.049404763 -0.17083333 0.625 1.6318667e-38
0.050757144 -0.17138 0.62700003 1.6226471e-38
0.052034285 -0.17165335 0.62800002 1.6134276e-38
0.053315237 -0.17192666 0.62900001 1.6041364e-38
0.054686669 -0.17247334 0.63100004 1.5949169e-38
0.055977143 -0.17274667 0.63200003 1.5949169e-38
0.057180952 -0.17274667 0.63200003 1.5764777e-38
0.058569524 -0.17329334 0.634 1.5672579e-38
0.059965719 -0.17384002 0.63600004 1.5580383e-38
0.061369527 -0.17438667 0.63800001 1.558002e-38
0.062780954 -0.17493334 0.64000005 1.5211238e-38
0.064099997 -0.17520668 0.64100003 1.4750623e-38
0.065320954 -0.17520668 0.64100003 1.5395992e-38
0.06654191 -0.17520668 0.64100003 1.7055879e-38
0.067762859 -0.17520668 0.64100003 1.9729552e-38
0.07210476 -0.18313333 0.67000002 1.9454758e-38
0.073380955 -0.18313333 0.67000002 1.834841e-38
0.074657142 -0.18313333 0.67000002 1.64148e-38
0.075933337 -0.18313333 0.67000002 1.4294301e-38
0.077209525 -0.18313333 0.67000002 1.4384346e-38
0.078251429 -0.18258668 0.66800004 1.8440953e-38
0.079523817 -0.18258668 0.66800004 1.9455108e-38
-0.025224764 -0.17534286 0.64600003 2.010048e-38
-0.023994286 -0.17534286 0.64600003 1.9454056e-38
-0.022763809 -0.17534286 0.64600003 1.3276948e-38
-0.021466667 -0.17480001 0.64400005 1.1064592e-38
-0.020177143 -0.17425714 0.64200002 1.2447527e-38
-0.018924762 -0.17398572 0.64100003 1.3366594e-38
-0.017620953 -0.17317143 0.63800001 1.3366594e-38
-0.016354287 -0.17262858 0.63600004 1.3550988e-38
-0.015119049 -0.17235716 0.63500005 1.3643183e-38
-0.013887619 -0.17208572 0.634 1.3643546e-38
-0.01264 -0.17154287 0.63200003 1.4012329e-38
-0.01143619 -0.17154287 0.63200003 1.4104878e-38
-0.010216191 -0.17127143 0.63100004 1.4104878e-38
-0.0090000005 -0.17100002 0.63000005 1.419672e-38
-0.0077876188 -0.17072856 0.62900001 1.419672e-38
-0.0065790475 -0.17045715 0.62800002 1.4104174e-38
-0.0053742859 -0.17018571 0.62700003 1.4472957e-38
-0.0041800002 -0.17018571 0.62700003 1.4472954e-38
-0.0029761905 -0.16964285 0.625 1.4657345e-38
-0.0017828571 -0.16937143 0.62400001 1.4749894e-38
-0.00059428572 -0.16937143 0.62400001 1.484209e-38
0.00059333333 -0.1691 0.62300003 1.4749906e-38
0.00178 -0.1691 0.62300003 1.5026493e-38
0.0029666668 -0.1691 0.62300003 1.5026496e-38
0.0041466667 -0.16882858 0.62200004 1.5303083e-38
0.0053314292 -0.16882858 0.62200004 1.5303077e-38
0.0065161907 -0.16882858 0.62200004 1.5395273e-38
0.0077009527 -0.16882858 0.62200004 1.558002e-38
0.0088714287 -0.16855715 0.62100005 1.558002e-38
0.010054287 -0.16855715 0.62100005 1.5671863e-38
0.011219047 -0.16828571 0.62 1.5764058e-38
0.0124 -0.16828571 0.62 1.5856254e-38
0.013580953 -0.16828571 0.62 1.5856254e-38
0.014761904 -0.16828571 0.62 1.5856973e-38
0.015942857 -0.16828571 0.62 1.613356e-38
0.017123809 -0.16828571 0.62 1.6133557e-38
0.018304761 -0.16828571 0.62 1.6041361e-38
0.019454286 -0.16801429 0.61900002 1.5949177e-38
0.020633334 -0.16801429 0.61900002 1.6317959e-38
0.021812381 -0.16801429 0.61900002 1.6318667e-38
0.022991428 -0.16801429 0.61900002 1.6226471e-38
0.02413143 -0.16774286 0.61800003 1.6410147e-38
0.025308572 -0.16774286 0.61800003 1.6502342e-38
0.026485715 -0.16774286 0.61800003 1.6410863e-38
0.02770762 -0.16801429 0.61900002 1.668745e-38
0.028886668 -0.16801429 0.61900002 1.6595251e-38
0.030065713 -0.16801429 0.61900002 1.6503056e-38
0.03129524 -0.16828571 0.62 1.6595254e-38
0.03247619 -0.16828571 0.62 1.6779645e-38
0.03371143 -0.16855715 0.62100005 1.6687081e-38
0.034894288 -0.16855715 0.62100005 1.6687081e-38
0.036135238 -0.16882858 0.62200004 1.677894e-38
0.037319999 -0.16882858 0.62200004 1.6686745e-38
0.038504764 -0.16882858 0.62200004 1.6595254e-38
0.039689526 -0.16882858 0.62200004 1.6595254e-38
0.040940002 -0.1691 0.62300003 1.6503056e-38
0.042194284 -0.16937143 0.62400001 1.641086e-38
0.043382857 -0.16937143 0.62400001 1.641051e-38
0.044642858 -0.16964285 0.625 1.641051e-38
0.045833334 -0.16964285 0.625 1.6318311e-38
0.04702381 -0.16964285 0.625 1.6318311e-38
0.048214287 -0.16964285 0.625 1.6318664e-38
0.049641903 -0.17045715 0.62800002 1.6318664e-38
0.050838094 -0.17045715 0.62800002 1.6134276e-38
0.052200004 -0.17100002 0.63000005 1.604208e-38
0.053400002 -0.17100002 0.63000005 1.6041361e-38
0.054773334 -0.17154287 0.63200003 1.5949166e-38
0.055977143 -0.17154287 0.63200003 1.5949163e-38
0.057361905 -0.17208572 0.634 1.5672576e-38
0.058569524 -0.17208572 0.634 1.548819e-38
0.059965719 -0.17262858 0.63600004 1.5395995e-38
0.061369527 -0.17317143 0.63800001 1.5395273e-38
0.062879048 -0.17398572 0.64100003 1.5118686e-38
0.064099997 -0.17398572 0.64100003 1.475062e-38
0.065320954 -0.17398572 0.64100003 1.6502337e-38
0.073380955 -0.18185715 0.67000002 1.4936456e-38
0.074657142 -0.18185715 0.67000002 1.4110288e-38
0.075706668 -0.18131429 0.66800004 1.6507374e-38
0.076979049 -0.18131429 0.66800004 1.8257284e-38
-0.023994286 -0.17411239 0.64600003 1.96388e-38
-0.022763809 -0.17411239 0.64600003 1.3553888e-38
-0.021466667 -0.17357334 0.64400005 1.1706735e-38
-0.020208571 -0.17330381 0.64300001 1.2720887e-38
-0.018954286 -0.1730343 0.64200002 1.3090007e-38
-0.017620953 -0.1719562 0.63800001 1.3274398e-38
-0.016405715 -0.1719562 0.63800001 1.3366596e-38
-0.015142857 -0.17141715 0.63600004 1.3550988e-38
-0.013909525 -0.17114763 0.63500005 1.3459158e-38
-0.01268 -0.1708781 0.634 1.3920136e-38
-0.011472382 -0.1708781 0.634 1.4104878e-38
-0.010232382 -0.17033905 0.63200003 1.4012682e-38
-0.0090142861 -0.17006953 0.63100004 1.4104522e-38
-0.0078000003 -0.16980001 0.63000005 1.4104522e-38
-0.006589524 -0.16953048 0.62900001 1.4196723e-38
-0.0053828573 -0.16926095 0.62800002 1.447331e-38
-0.0041800002 -0.16899143 0.62700003 1.4474026e-38
-0.0029857145 -0.16899143 0.62700003 1.4658417e-38
-0.0017857143 -0.16845238 0.625 1.4749894e-38
-0.00059523806 -0.16845238 0.625 1.4934285e-38
0.00059428572 -0.16818286 0.62400001 1.4749904e-38
0.0017828571 -0.16818286 0.62400001 1.5026491e-38
0.0029714287 -0.16818286 0.62400001 1.4935017e-38
0.0041533331 -0.16791333 0.62300003 1.5211604e-38
0.0053400001 -0.16791333 0.62300003 1.5303431e-38
0.0065266667 -0.16791333 0.62300003 1.5487822e-38
0.0077133332 -0.16791333 0.62300003 1.5487825e-38
0.0088857152 -0.16764383 0.62200004 1.558002e-38
0.010070477 -0.16764383 0.62200004 1.567186e-38
0.011237144 -0.1673743 0.62100005 1.5764056e-38
0.0124 -0.16710477 0.62 1.5856251e-38
0.013580953 -0.16710477 0.62 1.5856251e-38
0.014761904 -0.16710477 0.62 1.5764058e-38
0.015942857 -0.16710477 0.62 1.6225037e-38
0.017123809 -0.16710477 0.62 1.613391e-38
0.018304761 -0.16710477 0.62 1.613391e-38
0.019485716 -0.16710477 0.62 1.6041724e-38
0.020633334 -0.16683523 0.61900002 1.6318311e-38
0.021812381 -0.16683523 0.61900002 1.6318664e-38
0.022991428 -0.16683523 0.61900002 1.6318664e-38
0.024170477 -0.16683523 0.61900002 1.6318667e-38
0.025349524 -0.16683523 0.61900002 1.6410863e-38
0.026528573 -0.16683523 0.61900002 1.6410863e-38
0.02770762 -0.16683523 0.61900002 1.6595254e-38
0.028886668 -0.16683523 0.61900002 1.6319387e-38
0.030065713 -0.16683523 0.61900002 1.6319387e-38
0.03129524 -0.16710477 0.62 1.6503058e-38
0.03247619 -0.16710477 0.62 1.668745e-38
0.03371143 -0.1673743 0.62100005 1.6411213e-38
0.034894288 -0.1673743 0.62100005 1.6503409e-38
0.036135238 -0.16764383 0.62200004 1.6686378e-38
0.037379999 -0.16791333 0.62300003 1.6686378e-38
0.038566668 -0.16791333 0.62300003 1.6595251e-38
0.039753333 -0.16791333 0.62300003 1.6595251e-38
0.040940002 -0.16791333 0.62300003 1.6319387e-38
0.042194284 -0.16818286 0.62400001 1.6227192e-38
0.043452382 -0.16845238 0.625 1.6227195e-38
0.044642858 -0.16845238 0.625 1.6227195e-38
0.045980003 -0.16899143 0.62700003 1.6134999e-38
0.047174286 -0.16899143 0.62700003 1.6042803e-38
0.048368573 -0.16899143 0.62700003 1.6042801e-38
0.049641903 -0.16926095 0.62800002 1.5950605e-38
0.050919048 -0.16953048 0.62900001 1.5857689e-38
0.052282859 -0.17006953 0.63100004 1.5857689e-38
0.053484764 -0.17006953 0.63100004 1.5949166e-38
0.054773334 -0.17033905 0.63200003 1.5949166e-38
0.056154288 -0.1708781 0.634 1.5673298e-38
0.057361905 -0.1708781 0.634 1.5581102e-38
0.058661908 -0.17114763 0.63500005 1.5488541e-38
0.060060002 -0.17168668 0.63700002 1.5488541e-38
0.061561912 -0.17249525 0.64000005 1.5396342e-38
0.062977143 -0.1730343 0.64200002 1.4750973e-38
0.064099997 -0.17276478 0.64100003 1.4566231e-38
0.065320954 -0.17276478 0.64100003 1.6594535e-38
0.073490478 -0.18085048 0.671 1.4660935e-38
0.074657142 -0.18058094 0.67000002 1.4017008e-38
0.075706668 -0.18004191 0.66800004 1.8258007e-38
0.076979049 -0.18004191 0.66800004 1.9087054e-38
-0.023994286 -0.1728819 0.64600003 1.9730991e-38
-0.022763809 -0.1728819 0.64600003 1.5582188e-38
-0.021466667 -0.17234668 0.64400005 1.1432718e-38
-0.020208571 -0.17207904 0.64300001 1.1524913e-38
-0.018954286 -0.17181143 0.64200002 1.2720871e-38
-0.017703811 -0.17154381 0.64100003 1.3274045e-38
-0.016405715 -0.17074095 0.63800001 1.3274045e-38
-0.015142857 -0.17020571 0.63600004 1.3550632e-38
-0.013909525 -0.1699381 0.63500005 1.3459155e-38
-0.012700001 -0.1699381 0.63500005 1.3827938e-38
-0.011472382 -0.16967048 0.634 1.4013032e-38
-0.010264762 -0.16967048 0.634 1.4013032e-38
-0.0090285717 -0.16913524 0.63200003 1.4012326e-38
-0.0078123817 -0.16886762 0.63100004 1.4012326e-38
-0.0066000009 -0.16860001 0.63000005 1.4196723e-38
-0.0053828573 -0.16806476 0.62800002 1.447331e-38
-0.0041866666 -0.16806476 0.62800002 1.45655e-38
-0.0029857145 -0.16779715 0.62700003 1.4657695e-38
-0.0017914285 -0.16779715 0.62700003 1.4749175e-38
-0.00059714291 -0.16779715 0.62700003 1.4841371e-38
0.00059523806 -0.1672619 0.625 1.4841739e-38
0.0017857143 -0.1672619 0.625 1.502613e-38
0.0029761905 -0.1672619 0.625 1.5025775e-38
0.00416 -0.16699429 0.62400001 1.5394557e-38
0.0053485716 -0.16699429 0.62400001 1.5303431e-38
0.0065266667 -0.16672666 0.62300003 1.5487822e-38
0.0077133332 -0.16672666 0.62300003 1.5487822e-38
0.0088999998 -0.16672666 0.62300003 1.5580017e-38
0.010070477 -0.16645905 0.62200004 1.5672216e-38
0.011237144 -0.16619143 0.62100005 1.5672216e-38
0.012420001 -0.16619143 0.62100005 1.5671863e-38
0.013602857 -0.16619143 0.62100005 1.5764058e-38
0.014785715 -0.16619143 0.62100005 1.5764777e-38
0.015968572 -0.16619143 0.62100005 1.613356e-38
0.017151428 -0.16619143 0.62100005 1.613391e-38
0.018304761 -0.1659238 0.62 1.613391e-38
0.019485716 -0.1659238 0.62 1.604208e-38
0.020666666 -0.1659238 0.62 1.6226471e-38
0.021847619 -0.1659238 0.62 1.6318301e-38
0.023028571 -0.1659238 0.62 1.6410497e-38
0.024209524 -0.1659238 0.62 1.6410144e-38
0.025349524 -0.16565619 0.61900002 1.6410144e-38
0.026528573 -0.16565619 0.61900002 1.6410144e-38
0.027752381 -0.1659238 0.62 1.650234e-38
0.028933333 -0.1659238 0.62 1.6594532e-38
0.030114286 -0.1659238 0.62 1.6502337e-38
0.031345718 -0.16619143 0.62100005 1.6503058e-38
0.032528572 -0.16619143 0.62100005 1.6595254e-38
0.033765715 -0.16645905 0.62200004 1.6502327e-38
0.034950476 -0.16645905 0.62200004 1.6594523e-38
0.036135238 -0.16645905 0.62200004 1.6594538e-38
0.037379999 -0.16672666 0.62300003 1.6594538e-38
0.038566668 -0.16672666 0.62300003 1.6503056e-38
0.039753333 -0.16672666 0.62300003 1.6595251e-38
0.040940002 -0.16672666 0.62300003 1.6227195e-38
0.042261906 -0.1672619 0.625 1.6227195e-38
0.043591432 -0.16779715 0.62700003 1.6134996e-38
0.044785716 -0.16779715 0.62700003 1.6134996e-38
0.045980003 -0.16779715 0.62700003 1.6318667e-38
0.047174286 -0.16779715 0.62700003 1.6226471e-38
0.048445713 -0.16806476 0.62800002 1.6226469e-38
0.049720954 -0.16833238 0.62900001 1.6042077e-38
0.050919048 -0.16833238 0.62900001 1.5856617e-38
0.052282859 -0.16886762 0.63100004 1.5948813e-38
0.053484764 -0.16886762 0.63100004 1.6040643e-38
0.054946665 -0.16967048 0.634 1.5948447e-38
0.056242861 -0.1699381 0.63500005 1.5856957e-38
0.057452384 -0.1699381 0.63500005 1.5672566e-38
0.058846667 -0.17047334 0.63700002 1.5580373e-38
0.060154289 -0.17074095 0.63800001 1.5488178e-38
0.061850477 -0.17207904 0.64300001 1.5303065e-38
0.062977143 -0.17181143 0.64200002 1.4934282e-38
0.064200006 -0.17181143 0.64200002 1.465843e-38
-0.024031429 -0.17191714 0.64700001 1.982354e-38
-0.022799049 -0.17191714 0.64700001 1.6320106e-38
-0.021533333 -0.17165144 0.64600003 1.3645381e-38
-0.020240003 -0.17112 0.64400005 1.1524881e-38
-0.019013334 -0.17112 0.64400005 1.2167697e-38
-0.017731428 -0.17058858 0.64200002 1.3181849e-38
-0.016482858 -0.17032287 0.64100003 1.3274401e-38
-0.015166666 -0.16926001 0.63700002 1.3550988e-38
-0.013909525 -0.16872858 0.63500005 1.3459155e-38
-0.012700001 -0.16872858 0.63500005 1.3735742e-38
-0.011472382 -0.16846286 0.634 1.3736095e-38
-0.010264762 -0.16846286 0.634 1.3920486e-38
-0.0090285717 -0.16793142 0.63200003 1.4012326e-38
-0.0078123817 -0.16766572 0.63100004 1.4104522e-38
-0.0066104764 -0.16766572 0.63100004 1.4196717e-38
-0.0053914287 -0.16713428 0.62900001 1.4381109e-38
-0.0041866666 -0.16686858 0.62800002 1.4381109e-38
-0.0029904763 -0.16686858 0.62800002 1.4473304e-38
-0.0017914285 -0.16660286 0.62700003 1.4472591e-38
-0.00059714291 -0.16660286 0.62700003 1.4749178e-38
0.00059714291 -0.16660286 0.62700003 1.4749178e-38
0.0017914285 -0.16660286 0.62700003 1.5025765e-38
0.0029761905 -0.16607143 0.625 1.4933935e-38
0.0041666664 -0.16607143 0.625 1.5118326e-38
0.005357143 -0.16607143 0.625 1.5026491e-38
