# .PCD v0.7 - Point Cloud Data file format
VERSION 0.7
FIELDS x y z rgb
SIZE 4 4 4 4
TYPE F F F F
COUNT 1 1 1 1
WIDTH 995
HEIGHT 1
VIEWPOINT 0 0 0 1 0 0 0
POINTS 995
DATA ascii
0.033433337 -0.23290001 0.59500003 1.9179253e-38
0.034566667 -0.23290001 0.59500003 1.9272161e-38
0.03576 -0.23329143 0.59600002 1.9272161e-38
0.036895238 -0.23329143 0.59600002 1.9272161e-38
0.038030475 -0.23329143 0.59600002 1.9272161e-38
0.039231431 -0.23368286 0.597 1.9548029e-38
0.040368572 -0.23368286 0.597 1.9455834e-38
0.041575242 -0.23407429 0.59800005 1.9455834e-38
0.042714287 -0.23407429 0.59800005 1.9640225e-38
0.043926667 -0.23446572 0.59900004 1.9640225e-38
0.04506762 -0.23446572 0.59900004 1.9916812e-38
0.046285715 -0.23485714 0.60000002 2.0009361e-38
0.047428574 -0.23485714 0.60000002 2.0378143e-38
0.048652381 -0.23524857 0.60100001 2.0562888e-38
0.049880005 -0.23564002 0.60200006 2.0562888e-38
0.05111143 -0.23603144 0.60300004 2.065472e-38
0.052260004 -0.23603144 0.60300004 2.065472e-38
0.053497147 -0.23642287 0.60400003 2.0654364e-38
0.054919053 -0.23759715 0.60700005 2.0562169e-38
0.056167625 -0.23798859 0.60800004 2.0562172e-38
0.057325717 -0.23798859 0.60800004 2.0562172e-38
0.058483813 -0.23798859 0.60800004 2.0469976e-38
0.059641909 -0.23798859 0.60800004 2.0838759e-38
0.061099999 -0.23916286 0.611 2.1207175e-38
0.062263809 -0.23916286 0.611 2.1483762e-38
0.06342762 -0.23916286 0.611 2.1576311e-38
0.065014288 -0.24072857 0.61500001 2.1023137e-38
0.066185713 -0.24072857 0.61500001 2.0285948e-38
0.067795239 -0.2422943 0.61900002 2.0285948e-38
0.068974286 -0.2422943 0.61900002 2.0193755e-38
0.070266664 -0.24268572 0.62 2.0470342e-38
0.071447626 -0.24268572 0.62 2.1022787e-38
0.072628573 -0.24268572 0.62 2.1114982e-38
-0.020933334 -0.24462096 0.62800002 1.3648957e-38
-0.019737143 -0.24462096 0.62800002 1.4294326e-38
-0.018540952 -0.24462096 0.62800002 1.4477992e-38
-0.017068572 -0.24072573 0.61800003 1.3924818e-38
-0.015891429 -0.24072573 0.61800003 1.4108504e-38
-0.014666668 -0.23994668 0.61600006 1.4477287e-38
-0.013471429 -0.23955715 0.61500001 1.4293611e-38
-0.0123 -0.23955715 0.61500001 1.4478003e-38
-0.011110476 -0.23916763 0.61400002 1.4569834e-38
-0.0098761907 -0.23760952 0.61000001 1.4569834e-38
-0.0087000001 -0.23722 0.60900003 1.4661315e-38
-0.0075400001 -0.23722 0.60900003 1.4661315e-38
-0.0063695242 -0.23683049 0.60800004 1.4937902e-38
-0.0052028573 -0.23644097 0.60700005 1.5306684e-38
-0.0040466674 -0.23644097 0.60700005 1.5030812e-38
-0.0028857142 -0.23605143 0.60600001 1.5030812e-38
-0.0017314287 -0.23605143 0.60600001 1.5398876e-38
-0.00057523814 -0.23527239 0.60400003 1.5767658e-38
0.00057428575 -0.23488286 0.60300004 1.567545e-38
0.0017228572 -0.23488286 0.60300004 1.567545e-38
0.0028666668 -0.23449335 0.60200006 1.5583257e-38
0.0040066671 -0.23410381 0.60100001 1.5767649e-38
0.0051514283 -0.23410381 0.60100001 1.5583983e-38
0.0062857145 -0.2337143 0.60000002 1.5676179e-38
0.0074285716 -0.2337143 0.60000002 1.5768014e-38
0.0085714282 -0.2337143 0.60000002 1.5768014e-38
0.0096980957 -0.23332477 0.59900004 1.5675827e-38
0.010820953 -0.23293525 0.59800005 1.5675827e-38
0.011960001 -0.23293525 0.59800005 1.586057e-38
0.013120953 -0.23332477 0.59900004 1.5952766e-38
0.014238096 -0.23293525 0.59800005 1.5953122e-38
0.015351428 -0.23254572 0.597 1.6045317e-38
0.016488571 -0.23254572 0.597 1.5953482e-38
0.017625714 -0.23254572 0.597 1.6045677e-38
0.018762857 -0.23254572 0.597 1.6137524e-38
0.0199 -0.23254572 0.597 1.6137524e-38
0.021001905 -0.2321562 0.59600002 1.6413395e-38
0.022137145 -0.2321562 0.59600002 1.6874373e-38
0.023272382 -0.2321562 0.59600002 1.6689979e-38
0.02440762 -0.2321562 0.59600002 1.6597783e-38
0.025542859 -0.2321562 0.59600002 1.6598152e-38
0.026678097 -0.2321562 0.59600002 1.6505956e-38
0.027813334 -0.2321562 0.59600002 1.6689982e-38
0.028948572 -0.2321562 0.59600002 1.6874373e-38
0.030033335 -0.23176667 0.59500003 1.6874725e-38
0.031166669 -0.23176667 0.59500003 1.7059116e-38
0.032354284 -0.2321562 0.59600002 1.6875089e-38
0.033489525 -0.2321562 0.59600002 1.6875089e-38
0.034624763 -0.2321562 0.59600002 1.6875089e-38
0.03576 -0.2321562 0.59600002 1.6782893e-38
0.036895238 -0.2321562 0.59600002 1.6875089e-38
0.038030475 -0.2321562 0.59600002 1.6875089e-38
0.039231431 -0.23254572 0.597 1.6967285e-38
0.040368572 -0.23254572 0.597 1.705948e-38
0.041575242 -0.23293525 0.59800005 1.7151312e-38
0.042714287 -0.23293525 0.59800005 1.7243507e-38
0.043926667 -0.23332477 0.59900004 1.7059476e-38
0.04506762 -0.23332477 0.59900004 1.6967281e-38
0.046208575 -0.23332477 0.59900004 1.6967285e-38
0.047428574 -0.2337143 0.60000002 1.6782893e-38
0.048652381 -0.23410381 0.60100001 1.6875441e-38
0.049880005 -0.23449335 0.60200006 1.6967636e-38
0.051026672 -0.23449335 0.60200006 1.6783245e-38
0.052260004 -0.23488286 0.60300004 1.6783245e-38
0.053674288 -0.23605143 0.60600001 1.6966932e-38
0.054828569 -0.23605143 0.60600001 1.6966932e-38
0.056075241 -0.23644097 0.60700005 1.7059483e-38
0.057325717 -0.23683049 0.60800004 1.7059483e-38
0.058483813 -0.23683049 0.60800004 1.6782893e-38
0.059641909 -0.23683049 0.60800004 1.6598502e-38
0.060900003 -0.23722 0.60900003 1.6598868e-38
0.062161908 -0.23760952 0.61000001 1.6691064e-38
0.06342762 -0.23799905 0.611 1.6875455e-38
0.064802863 -0.2387781 0.61300004 1.6875455e-38
0.066078097 -0.23916763 0.61400002 1.6598865e-38
0.067357138 -0.23955715 0.61500001 1.650667e-38
0.068862855 -0.24072573 0.61800003 1.6507395e-38
0.070153333 -0.24111524 0.61900002 1.6599591e-38
0.071447626 -0.24150476 0.62 1.6691064e-38
0.072745718 -0.24189429 0.62100005 1.6783259e-38
-0.020900002 -0.24303715 0.62700003 1.3280899e-38
-0.019705717 -0.24303715 0.62700003 1.4110659e-38
-0.018334286 -0.24071145 0.62100005 1.4661664e-38
-0.017068572 -0.23954858 0.61800003 1.4200686e-38
-0.015891429 -0.23954858 0.61800003 1.4384724e-38
-0.014666668 -0.23877335 0.61600006 1.4384724e-38
-0.013471429 -0.23838572 0.61500001 1.438508e-38
-0.0123 -0.23838572 0.61500001 1.4753862e-38
-0.011110476 -0.2379981 0.61400002 1.4846055e-38
-0.0098761907 -0.23644762 0.61000001 1.4846055e-38
-0.0087142866 -0.23644762 0.61000001 1.4937538e-38
-0.0075400001 -0.23606001 0.60900003 1.4937538e-38
-0.0063695242 -0.23567238 0.60800004 1.5213759e-38
-0.0052114287 -0.23567238 0.60800004 1.5305954e-38
-0.0040466674 -0.23528479 0.60700005 1.5398513e-38
-0.0028857142 -0.23489714 0.60600001 1.5490709e-38
-0.0017314287 -0.23489714 0.60600001 1.5582904e-38
-0.00057523814 -0.23412192 0.60400003 1.5582904e-38
0.00057523814 -0.23412192 0.60400003 1.5305598e-38
0.0017228572 -0.23373431 0.60300004 1.5582185e-38
0.0028666668 -0.23334669 0.60200006 1.5582541e-38
0.0040066671 -0.23295906 0.60100001 1.5951324e-38
0.0051514283 -0.23295906 0.60100001 1.5859844e-38
0.0062857145 -0.23257144 0.60000002 1.5859844e-38
0.0074285716 -0.23257144 0.60000002 1.6135715e-38
0.0085714282 -0.23257144 0.60000002 1.6043519e-38
0.0096980957 -0.23218381 0.59900004 1.6136081e-38
0.010839048 -0.23218381 0.59900004 1.6228276e-38
0.01198 -0.23218381 0.59900004 1.6044601e-38
0.013120953 -0.23218381 0.59900004 1.6044601e-38
0.014238096 -0.23179621 0.59800005 1.6136797e-38
0.015351428 -0.23140857 0.597 1.6321188e-38
0.016488571 -0.23140857 0.597 1.622899e-38
0.017625714 -0.23140857 0.597 1.6321185e-38
0.018794287 -0.23179621 0.59800005 1.6136805e-38
0.0199 -0.23140857 0.597 1.6505588e-38
0.021037143 -0.23140857 0.597 1.6689615e-38
0.022137145 -0.23102096 0.59600002 1.678181e-38
0.023272382 -0.23102096 0.59600002 1.6781814e-38
0.02440762 -0.23102096 0.59600002 1.687401e-38
0.025542859 -0.23102096 0.59600002 1.696585e-38
0.026678097 -0.23102096 0.59600002 1.696585e-38
0.027813334 -0.23102096 0.59600002 1.7058401e-38
0.028948572 -0.23102096 0.59600002 1.7058401e-38
0.030083811 -0.23102096 0.59600002 1.7058401e-38
0.03121905 -0.23102096 0.59600002 1.7058401e-38
0.032354284 -0.23102096 0.59600002 1.6782893e-38
0.033489525 -0.23102096 0.59600002 1.6782893e-38
0.034624763 -0.23102096 0.59600002 1.7150957e-38
0.03576 -0.23102096 0.59600002 1.7058762e-38
0.036895238 -0.23102096 0.59600002 1.7058401e-38
0.038094286 -0.23140857 0.597 1.7150597e-38
0.039231431 -0.23140857 0.597 1.7058401e-38
0.040368572 -0.23140857 0.597 1.7058401e-38
0.041575242 -0.23179621 0.59800005 1.7334988e-38
0.042714287 -0.23179621 0.59800005 1.7334988e-38
0.043926667 -0.23218381 0.59900004 1.7334988e-38
0.04506762 -0.23218381 0.59900004 1.7242793e-38
0.046208575 -0.23218381 0.59900004 1.7242793e-38
0.047428574 -0.23257144 0.60000002 1.7150597e-38
0.048652381 -0.23295906 0.60100001 1.7058753e-38
0.049797144 -0.23295906 0.60100001 1.6966557e-38
0.051026672 -0.23334669 0.60200006 1.6966192e-38
0.052260004 -0.23373431 0.60300004 1.6966192e-38
0.053497147 -0.23412192 0.60400003 1.6965841e-38
0.054828569 -0.23489714 0.60600001 1.6965841e-38
0.056075241 -0.23528479 0.60700005 1.6966206e-38
0.057325717 -0.23567238 0.60800004 1.6966206e-38
0.058483813 -0.23567238 0.60800004 1.7242788e-38
0.059641909 -0.23567238 0.60800004 1.6966202e-38
0.060900003 -0.23606001 0.60900003 1.6966206e-38
0.062161908 -0.23644762 0.61000001 1.6689619e-38
0.06342762 -0.23683524 0.611 1.6597419e-38
0.064802863 -0.23761049 0.61300004 1.6689615e-38
0.066078097 -0.2379981 0.61400002 1.6689982e-38
0.067357138 -0.23838572 0.61500001 1.6689982e-38
0.068640009 -0.23877335 0.61600006 1.6690701e-38
0.07004001 -0.23954858 0.61800003 1.6875092e-38
0.07133238 -0.2399362 0.61900002 1.6782177e-38
0.072745718 -0.24071145 0.62100005 1.6782177e-38
-0.020900002 -0.24184287 0.62700003 1.3373097e-38
-0.019642858 -0.24107143 0.625 1.4110662e-38
-0.018334286 -0.23952858 0.62100005 1.4569471e-38
-0.01709619 -0.23875715 0.61900002 1.4292884e-38
-0.015917145 -0.23875715 0.61900002 1.4292528e-38
-0.014666668 -0.23760003 0.61600006 1.4384724e-38
-0.013493334 -0.23760003 0.61600006 1.4384724e-38
-0.0123 -0.23721428 0.61500001 1.4845702e-38
-0.011110476 -0.23682858 0.61400002 1.4845689e-38
-0.0098761907 -0.23528571 0.61000001 1.4937885e-38
-0.0087142866 -0.23528571 0.61000001 1.4937535e-38
-0.0075400001 -0.2349 0.60900003 1.502973e-38
-0.0063800002 -0.2349 0.60900003 1.5213759e-38
-0.0052114287 -0.2345143 0.60800004 1.5213759e-38
-0.0040466674 -0.23412859 0.60700005 1.5121937e-38
-0.0028857142 -0.23374286 0.60600001 1.5398524e-38
-0.0017314287 -0.23374286 0.60600001 1.5490357e-38
-0.00057523814 -0.23297143 0.60400003 1.5398161e-38
0.00057523814 -0.23297143 0.60400003 1.5490357e-38
0.0017228572 -0.23258573 0.60300004 1.5674748e-38
0.0028714288 -0.23258573 0.60300004 1.5582552e-38
0.0040066671 -0.23181428 0.60100001 1.5951335e-38
0.0051514283 -0.23181428 0.60100001 1.5859844e-38
0.0062961904 -0.23181428 0.60100001 1.5859844e-38
0.0074285716 -0.23142858 0.60000002 1.5768014e-38
0.0085714282 -0.23142858 0.60000002 1.586021e-38
0.0096980957 -0.23104288 0.59900004 1.6043531e-38
0.010839048 -0.23104288 0.59900004 1.6504509e-38
0.01198 -0.23104288 0.59900004 1.6228276e-38
0.013120953 -0.23104288 0.59900004 1.6136081e-38
0.014261906 -0.23104288 0.59900004 1.6320832e-38
0.015377144 -0.23065716 0.59800005 1.6874006e-38
0.016516192 -0.23065716 0.59800005 1.6689605e-38
0.01765524 -0.23065716 0.59800005 1.6689605e-38
0.018794287 -0.23065716 0.59800005 1.6504872e-38
0.0199 -0.23027143 0.597 1.6781459e-38
0.021037143 -0.23027143 0.597 1.6874362e-38
0.022137145 -0.22988571 0.59600002 1.6874362e-38
0.023272382 -0.22988571 0.59600002 1.6873654e-38
0.02440762 -0.22988571 0.59600002 1.7058045e-38
0.025542859 -0.22988571 0.59600002 1.7058048e-38
0.026678097 -0.22988571 0.59600002 1.724244e-38
0.027813334 -0.22988571 0.59600002 1.7242793e-38
0.028948572 -0.22988571 0.59600002 1.7242793e-38
0.030083811 -0.22988571 0.59600002 1.7242793e-38
0.03121905 -0.22988571 0.59600002 1.7242793e-38
0.032354284 -0.22988571 0.59600002 1.7334635e-38
0.033489525 -0.22988571 0.59600002 1.7334635e-38
0.034624763 -0.22988571 0.59600002 1.7335348e-38
0.03576 -0.22988571 0.59600002 1.7335348e-38
0.036957141 -0.23027143 0.597 1.7426828e-38
0.038094286 -0.23027143 0.597 1.7519024e-38
0.039231431 -0.23027143 0.597 1.7335351e-38
0.040368572 -0.23027143 0.597 1.7335351e-38
0.041575242 -0.23065716 0.59800005 1.7335354e-38
0.042714287 -0.23065716 0.59800005 1.742755e-38
0.043926667 -0.23104288 0.59900004 1.7427547e-38
0.04506762 -0.23104288 0.59900004 1.7427547e-38
0.046285715 -0.23142858 0.60000002 1.7519024e-38
0.047428574 -0.23142858 0.60000002 1.7519024e-38
0.048652381 -0.23181428 0.60100001 1.742718e-38
0.049797144 -0.23181428 0.60100001 1.7334984e-38
0.051026672 -0.23220003 0.60200006 1.705875e-38
0.052260004 -0.23258573 0.60300004 1.7150946e-38
0.053497147 -0.23297143 0.60400003 1.7150949e-38
0.054828569 -0.23374286 0.60600001 1.7150949e-38
0.056075241 -0.23412859 0.60700005 1.7150949e-38
0.057325717 -0.2345143 0.60800004 1.7243144e-38
0.058483813 -0.2345143 0.60800004 1.7242793e-38
0.059641909 -0.2345143 0.60800004 1.7242793e-38
0.060900003 -0.2349 0.60900003 1.7242793e-38
0.062161908 -0.23528571 0.61000001 1.7242793e-38
0.06342762 -0.23567143 0.611 1.7058753e-38
0.064802863 -0.23644286 0.61300004 1.7150949e-38
0.066078097 -0.23682858 0.61400002 1.7335354e-38
0.067357138 -0.23721428 0.61500001 1.7704137e-38
0.068640009 -0.23760003 0.61600006 1.7980707e-38
0.07004001 -0.23837143 0.61800003 1.8165098e-38
0.07133238 -0.23875715 0.61900002 1.7980704e-38
0.072745718 -0.23952858 0.62100005 1.7243139e-38
-0.020900002 -0.24064858 0.62700003 1.3556409e-38
-0.019642858 -0.23988095 0.625 1.4293974e-38
-0.018363811 -0.23872954 0.62200004 1.4293247e-38
-0.017123809 -0.2379619 0.62 1.4108856e-38
-0.015917145 -0.23757809 0.61900002 1.4201052e-38
-0.014714287 -0.2371943 0.61800003 1.4293247e-38
-0.013493334 -0.23642668 0.61600006 1.4384358e-38
-0.0123 -0.23604286 0.61500001 1.4568749e-38
-0.011110476 -0.23565906 0.61400002 1.4568749e-38
-0.009924762 -0.23527525 0.61300004 1.4845336e-38
-0.0087142866 -0.23412381 0.61000001 1.4937532e-38
-0.0075400001 -0.23374002 0.60900003 1.5029728e-38
-0.0063800002 -0.23374002 0.60900003 1.5121926e-38
-0.0052114287 -0.23335621 0.60800004 1.5121926e-38
-0.0040466674 -0.2329724 0.60700005 1.4938262e-38
-0.0028857142 -0.23258857 0.60600001 1.5307045e-38
-0.0017314287 -0.23258857 0.60600001 1.5307399e-38
-0.00057523814 -0.23182097 0.60400003 1.5399595e-38
0.00057523814 -0.23182097 0.60400003 1.5675103e-38
0.0017228572 -0.23143716 0.60300004 1.5490711e-38
0.0028714288 -0.23143716 0.60300004 1.5490357e-38
0.0040133335 -0.23105335 0.60200006 1.5766944e-38
0.0051514283 -0.23066953 0.60100001 1.5398876e-38
0.0062961904 -0.23066953 0.60100001 1.5767658e-38
0.0074285716 -0.23028572 0.60000002 1.5951335e-38
0.0085714282 -0.23028572 0.60000002 1.5951335e-38
0.0097142868 -0.23028572 0.60000002 1.5951335e-38
0.010839048 -0.22990192 0.59900004 1.6135726e-38
0.01198 -0.22990192 0.59900004 1.6043885e-38
0.013120953 -0.22990192 0.59900004 1.6043885e-38
0.014261906 -0.22990192 0.59900004 1.6043531e-38
0.015377144 -0.22951812 0.59800005 1.6504509e-38
0.016516192 -0.22951812 0.59800005 1.650486e-38
0.01765524 -0.22951812 0.59800005 1.6412665e-38
0.018794287 -0.22951812 0.59800005 1.6228276e-38
0.0199 -0.22913429 0.597 1.6873646e-38
0.021037143 -0.22913429 0.597 1.678181e-38
0.022137145 -0.22875048 0.59600002 1.6874006e-38
0.023272382 -0.22875048 0.59600002 1.6874006e-38
0.02440762 -0.22875048 0.59600002 1.7058397e-38
0.025542859 -0.22875048 0.59600002 1.7058397e-38
0.026678097 -0.22875048 0.59600002 1.7242788e-38
0.027813334 -0.22875048 0.59600002 1.7242788e-38
0.028948572 -0.22875048 0.59600002 1.7334984e-38
0.030083811 -0.22875048 0.59600002 1.7334988e-38
0.03121905 -0.22875048 0.59600002 1.7334988e-38
0.032354284 -0.22875048 0.59600002 1.7334632e-38
0.033489525 -0.22875048 0.59600002 1.7426828e-38
0.034624763 -0.22875048 0.59600002 1.7426828e-38
0.03582 -0.22913429 0.597 1.7426828e-38
0.036957141 -0.22913429 0.597 1.7426828e-38
0.038094286 -0.22913429 0.597 1.7519024e-38
0.039297149 -0.22951812 0.59800005 1.7427184e-38
0.040436193 -0.22951812 0.59800005 1.7427184e-38
0.041575242 -0.22951812 0.59800005 1.7427547e-38
0.042785715 -0.22990192 0.59900004 1.7519742e-38
0.043926667 -0.22990192 0.59900004 1.751974e-38
0.045142859 -0.23028572 0.60000002 1.7427544e-38
0.046285715 -0.23028572 0.60000002 1.751938e-38
0.047428574 -0.23028572 0.60000002 1.7427184e-38
0.048652381 -0.23066953 0.60100001 1.7150597e-38
0.049880005 -0.23105335 0.60200006 1.7242793e-38
0.051026672 -0.23105335 0.60200006 1.7242425e-38
0.052260004 -0.23143716 0.60300004 1.7334621e-38
0.053497147 -0.23182097 0.60400003 1.7242793e-38
0.054828569 -0.23258857 0.60600001 1.7150597e-38
0.056075241 -0.2329724 0.60700005 1.6782175e-38
0.057325717 -0.23335621 0.60800004 1.7058762e-38
0.058483813 -0.23335621 0.60800004 1.7150957e-38
0.059739999 -0.23374002 0.60900003 1.7150957e-38
0.061000001 -0.23412381 0.61000001 1.7150597e-38
0.062161908 -0.23412381 0.61000001 1.7242793e-38
0.06342762 -0.23450762 0.611 1.7243144e-38
0.064802863 -0.23527525 0.61300004 1.7243144e-38
0.066078097 -0.23565906 0.61400002 1.7335354e-38
0.067357138 -0.23604286 0.61500001 1.7796332e-38
0.068640009 -0.23642668 0.61600006 1.7980718e-38
0.07004001 -0.2371943 0.61800003 1.8257305e-38
0.071447626 -0.2379619 0.62 1.8257673e-38
0.072745718 -0.23834573 0.62100005 1.7151326e-38
0.074285716 -0.23949714 0.62400001 1.6690334e-38
-0.020933334 -0.23983619 0.62800002 1.3556412e-38
-0.019705717 -0.2394543 0.62700003 1.4201782e-38
-0.01845238 -0.23869048 0.625 1.4292895e-38
-0.017123809 -0.23678094 0.62 1.4108504e-38
-0.015917145 -0.23639905 0.61900002 1.4384724e-38
-0.014714287 -0.23601715 0.61800003 1.4200333e-38
-0.013493334 -0.23525335 0.61600006 1.4292153e-38
-0.0123 -0.23487143 0.61500001 1.4384348e-38
-0.011110476 -0.23448953 0.61400002 1.4477275e-38
-0.009924762 -0.23410763 0.61300004 1.4661667e-38
-0.0087142866 -0.23296191 0.61000001 1.5029002e-38
-0.0075523811 -0.23296191 0.61000001 1.5121197e-38
-0.0063800002 -0.23258001 0.60900003 1.502973e-38
-0.0052114287 -0.2321981 0.60800004 1.5121926e-38
-0.0040466674 -0.23181622 0.60700005 1.4938265e-38
-0.0028904765 -0.23181622 0.60700005 1.5399243e-38
-0.0017314287 -0.23143429 0.60600001 1.5307399e-38
-0.00057714287 -0.23143429 0.60600001 1.5676182e-38
0.00057523814 -0.23067048 0.60400003 1.558362e-38
0.0017257143 -0.23067048 0.60400003 1.5399229e-38
0.0028714288 -0.23028859 0.60300004 1.549072e-38
0.0040133335 -0.22990669 0.60200006 1.5767307e-38
0.0051600006 -0.22990669 0.60200006 1.5675111e-38
0.0062961904 -0.22952476 0.60100001 1.5767307e-38
0.0074409526 -0.22952476 0.60100001 1.5858786e-38
0.0085714282 -0.22914286 0.60000002 1.6135373e-38
0.0097142868 -0.22914286 0.60000002 1.6136445e-38
0.010857143 -0.22914286 0.60000002 1.6044249e-38
0.012 -0.22914286 0.60000002 1.6227922e-38
0.013142857 -0.22914286 0.60000002 1.6412313e-38
0.014261906 -0.22876097 0.59900004 1.6135376e-38
0.015402857 -0.22876097 0.59900004 1.6411963e-38
0.016516192 -0.22837907 0.59800005 1.6504863e-38
0.01765524 -0.22837907 0.59800005 1.6689255e-38
0.018794287 -0.22837907 0.59800005 1.6413028e-38
0.0199 -0.22799714 0.597 1.678181e-38
0.021037143 -0.22799714 0.597 1.6873643e-38
0.022174286 -0.22799714 0.597 1.6873643e-38
0.023272382 -0.22761524 0.59600002 1.6874006e-38
0.02440762 -0.22761524 0.59600002 1.7150593e-38
0.025585713 -0.22799714 0.597 1.7150593e-38
0.026722858 -0.22799714 0.597 1.7334984e-38
0.027813334 -0.22761524 0.59600002 1.733534e-38
0.028948572 -0.22761524 0.59600002 1.733534e-38
0.030083811 -0.22761524 0.59600002 1.7334988e-38
0.03121905 -0.22761524 0.59600002 1.7334988e-38
0.032408569 -0.22799714 0.597 1.7334632e-38
0.033545714 -0.22799714 0.597 1.7426828e-38
0.034682855 -0.22799714 0.597 1.7335354e-38
0.03582 -0.22799714 0.597 1.7243158e-38
0.036957141 -0.22799714 0.597 1.7335351e-38
0.038158096 -0.22837907 0.59800005 1.7335351e-38
0.039297149 -0.22837907 0.59800005 1.7334984e-38
0.040436193 -0.22837907 0.59800005 1.742718e-38
0.041575242 -0.22837907 0.59800005 1.751938e-38
0.042785715 -0.22876097 0.59900004 1.7427184e-38
0.044 -0.22914286 0.60000002 1.7427184e-38
0.045142859 -0.22914286 0.60000002 1.751938e-38
0.046285715 -0.22914286 0.60000002 1.7427184e-38
0.047428574 -0.22914286 0.60000002 1.7427184e-38
0.048652381 -0.22952476 0.60100001 1.7334632e-38
0.049880005 -0.22990669 0.60200006 1.7334632e-38
0.05111143 -0.23028859 0.60300004 1.7334988e-38
0.052346669 -0.23067048 0.60400003 1.7334988e-38
0.053497147 -0.23067048 0.60400003 1.7334988e-38
0.054828569 -0.23143429 0.60600001 1.7242793e-38
0.056075241 -0.23181622 0.60700005 1.7242793e-38
0.057325717 -0.2321981 0.60800004 1.7242793e-38
0.058580004 -0.23258001 0.60900003 1.7334632e-38
0.059739999 -0.23258001 0.60900003 1.7334632e-38
0.061000001 -0.23296191 0.61000001 1.7058767e-38
0.062263809 -0.23334381 0.611 1.7150963e-38
0.063531436 -0.23372573 0.61200005 1.7242793e-38
0.064908572 -0.23448953 0.61400002 1.7242793e-38
0.066185713 -0.23487143 0.61500001 1.7334635e-38
0.067466669 -0.23525335 0.61600006 1.7795613e-38
0.068862855 -0.23601715 0.61800003 1.7888522e-38
0.070153333 -0.23639905 0.61900002 1.8810478e-38
0.071562864 -0.23716287 0.62100005 1.8994505e-38
0.072745718 -0.23716287 0.62100005 1.7795962e-38
0.074285716 -0.23830856 0.62400001 1.6967645e-38
-0.022164762 -0.23902 0.62900001 1.5767295e-38
-0.020933334 -0.23864001 0.62800002 1.3371302e-38
-0.019705717 -0.23826002 0.62700003 1.4108867e-38
-0.01845238 -0.2375 0.625 1.4477284e-38
-0.017151428 -0.23598002 0.62100005 1.4292893e-38
-0.015942857 -0.23560001 0.62 1.438508e-38
-0.014738095 -0.23522 0.61900002 1.4200689e-38
-0.013537143 -0.23484001 0.61800003 1.419996e-38
-0.0123 -0.23370001 0.61500001 1.4568742e-38
-0.011128572 -0.23370001 0.61500001 1.4660585e-38
-0.009924762 -0.23294002 0.61300004 1.4752781e-38
-0.0087142866 -0.23179999 0.61000001 1.4753128e-38
-0.0075523811 -0.23179999 0.61000001 1.4845324e-38
-0.0063800002 -0.23142001 0.60900003 1.4845339e-38
-0.0052114287 -0.23104 0.60800004 1.5121926e-38
-0.0040466674 -0.23066002 0.60700005 1.4938262e-38
-0.0028904765 -0.23066002 0.60700005 1.5307045e-38
-0.0017314287 -0.23028 0.60600001 1.5214849e-38
-0.00057714287 -0.23028 0.60600001 1.5583631e-38
0.00057714287 -0.23028 0.60600001 1.5491788e-38
0.0017257143 -0.22952001 0.60400003 1.5583983e-38
0.0028761907 -0.22952001 0.60400003 1.5675467e-38
0.0040200003 -0.22914001 0.60300004 1.5767663e-38
0.0051600006 -0.22876002 0.60200006 1.5859142e-38
0.0063066673 -0.22876002 0.60200006 1.5766946e-38
0.0074409526 -0.22838001 0.60100001 1.5675111e-38
0.0085857147 -0.22838001 0.60100001 1.6043894e-38
0.0097142868 -0.228 0.60000002 1.6320117e-38
0.010857143 -0.228 0.60000002 1.6320117e-38
0.012 -0.228 0.60000002 1.6320117e-38
0.013142857 -0.228 0.60000002 1.6412313e-38
0.014261906 -0.22762001 0.59900004 1.6227925e-38
0.015402857 -0.22762001 0.59900004 1.6596707e-38
0.016516192 -0.22724001 0.59800005 1.6597059e-38
0.01765524 -0.22724001 0.59800005 1.6597059e-38
0.018794287 -0.22724001 0.59800005 1.6505579e-38
0.0199 -0.22686 0.597 1.6782166e-38
0.021037143 -0.22686 0.597 1.6873643e-38
0.022174286 -0.22686 0.597 1.7058034e-38
0.023311427 -0.22686 0.597 1.7058753e-38
0.02444857 -0.22686 0.597 1.7243144e-38
0.025585713 -0.22686 0.597 1.7243144e-38
0.026722858 -0.22686 0.597 1.7243144e-38
0.027860001 -0.22686 0.597 1.733534e-38
0.028997144 -0.22686 0.597 1.733534e-38
0.030134287 -0.22686 0.597 1.7334988e-38
0.031271428 -0.22686 0.597 1.7427184e-38
0.032408569 -0.22686 0.597 1.7426828e-38
0.033545714 -0.22686 0.597 1.7426828e-38
0.034682855 -0.22686 0.597 1.715097e-38
0.03582 -0.22686 0.597 1.7243165e-38
0.036957141 -0.22686 0.597 1.733607e-38
0.038158096 -0.22724001 0.59800005 1.733607e-38
0.039297149 -0.22724001 0.59800005 1.7427184e-38
0.040436193 -0.22724001 0.59800005 1.751938e-38
0.041644763 -0.22762001 0.59900004 1.7611219e-38
0.042785715 -0.22762001 0.59900004 1.7519024e-38
0.044 -0.228 0.60000002 1.742718e-38
0.045142859 -0.228 0.60000002 1.7519375e-38
0.046362858 -0.22838001 0.60100001 1.7426831e-38
0.047507618 -0.22838001 0.60100001 1.7426831e-38
0.048733339 -0.22876002 0.60200006 1.7426828e-38
0.04996286 -0.22914001 0.60300004 1.7426828e-38
0.051196195 -0.22952001 0.60400003 1.742718e-38
0.052346669 -0.22952001 0.60400003 1.7334984e-38
0.053497147 -0.22952001 0.60400003 1.7334984e-38
0.054919053 -0.23066002 0.60700005 1.742718e-38
0.056075241 -0.23066002 0.60700005 1.7426465e-38
0.057325717 -0.23104 0.60800004 1.7334269e-38
0.058580004 -0.23142001 0.60900003 1.7334632e-38
0.059739999 -0.23142001 0.60900003 1.7334632e-38
0.061000001 -0.23179999 0.61000001 1.7242793e-38
0.062263809 -0.23218 0.611 1.7242793e-38
0.063531436 -0.23256001 0.61200005 1.7334988e-38
0.064908572 -0.23332 0.61400002 1.7242793e-38
0.066185713 -0.23370001 0.61500001 1.7058048e-38
0.067685723 -0.23484001 0.61800003 1.7611222e-38
0.068974286 -0.23522 0.61900002 1.7795962e-38
0.070266664 -0.23560001 0.62 1.8810114e-38
0.071562864 -0.23598002 0.62100005 1.8994873e-38
0.072862864 -0.23636001 0.62200004 1.7796329e-38
0.074166663 -0.23674001 0.62300003 1.6967636e-38
0.087360002 -0.23712 0.62400001 2.2588302e-38
0.088548578 -0.23712 0.62400001 2.2404631e-38
0.08973714 -0.23712 0.62400001 2.2220241e-38
0.090925716 -0.23712 0.62400001 2.1761065e-38
0.091819048 -0.23636001 0.62200004 2.1115696e-38
0.093003817 -0.23636001 0.62200004 1.8721883e-38
0.094188571 -0.23636001 0.62200004 1.9090661e-38
-0.023437144 -0.23857811 0.63100004 1.9362925e-38
-0.022164762 -0.23782191 0.62900001 1.56751e-38
-0.020933334 -0.23744382 0.62800002 1.3556049e-38
-0.019705717 -0.23706572 0.62700003 1.4201419e-38
-0.01845238 -0.23630953 0.625 1.4476568e-38
-0.017151428 -0.23479715 0.62100005 1.4384372e-38
-0.015942857 -0.23441905 0.62 1.4476557e-38
-0.014738095 -0.23404096 0.61900002 1.4568752e-38
-0.013537143 -0.23366286 0.61800003 1.4568389e-38
-0.012320001 -0.23290668 0.61600006 1.5121563e-38
-0.011128572 -0.23252857 0.61500001 1.4569465e-38
-0.009940953 -0.23215048 0.61400002 1.4292879e-38
-0.0087142866 -0.23063809 0.61000001 1.4384701e-38
-0.0075523811 -0.23063809 0.61000001 1.4661288e-38
-0.0063800002 -0.23026001 0.60900003 1.4753506e-38
-0.0052114287 -0.22988193 0.60800004 1.5122289e-38
-0.0040466674 -0.22950383 0.60700005 1.5122293e-38
-0.0028904765 -0.22950383 0.60700005 1.5122293e-38
-0.0017314287 -0.22912571 0.60600001 1.5306328e-38
-0.00057714287 -0.22912571 0.60600001 1.5675111e-38
0.00057714287 -0.22912571 0.60600001 1.549179e-38
0.0017257143 -0.22836953 0.60400003 1.5583986e-38
0.0028761907 -0.22836953 0.60400003 1.5675111e-38
0.0040200003 -0.22799145 0.60300004 1.5767307e-38
0.0051600006 -0.22761334 0.60200006 1.5767307e-38
0.0063066673 -0.22761334 0.60200006 1.5767307e-38
0.0074409526 -0.22723524 0.60100001 1.5767672e-38
0.0085857147 -0.22723524 0.60100001 1.6044259e-38
0.009730476 -0.22723524 0.60100001 1.6227922e-38
0.010875239 -0.22723524 0.60100001 1.6227922e-38
0.01202 -0.22723524 0.60100001 1.6227569e-38
0.013142857 -0.22685716 0.60000002 1.6319764e-38
0.014285715 -0.22685716 0.60000002 1.6319764e-38
0.015402857 -0.22647905 0.59900004 1.6688547e-38
0.016543809 -0.22647905 0.59900004 1.6596704e-38
0.017684761 -0.22647905 0.59900004 1.6504509e-38
0.018825715 -0.22647905 0.59900004 1.6413384e-38
0.019933335 -0.22610097 0.59800005 1.6689971e-38
0.021037143 -0.22572286 0.597 1.6873643e-38
0.022174286 -0.22572286 0.597 1.6965839e-38
0.023311427 -0.22572286 0.597 1.6966557e-38
0.02444857 -0.22572286 0.597 1.733534e-38
0.025628572 -0.22610097 0.59800005 1.7243142e-38
0.026722858 -0.22572286 0.597 1.7150946e-38
0.027860001 -0.22572286 0.597 1.7243142e-38
0.028997144 -0.22572286 0.597 1.7335337e-38
0.030134287 -0.22572286 0.597 1.7334988e-38
0.031271428 -0.22572286 0.597 1.7427184e-38
0.032408569 -0.22572286 0.597 1.7426828e-38
0.033545714 -0.22572286 0.597 1.7519024e-38
0.034682855 -0.22572286 0.597 1.7243171e-38
0.03582 -0.22572286 0.597 1.7335367e-38
0.037019052 -0.22610097 0.59800005 1.7427547e-38
0.038158096 -0.22610097 0.59800005 1.7335351e-38
0.039362859 -0.22647905 0.59900004 1.7426828e-38
0.040503811 -0.22647905 0.59900004 1.7611219e-38
0.041714288 -0.22685716 0.60000002 1.7611222e-38
0.042857144 -0.22685716 0.60000002 1.7519026e-38
0.044073332 -0.22723524 0.60100001 1.742718e-38
0.045218095 -0.22723524 0.60100001 1.7519375e-38
0.046362858 -0.22723524 0.60100001 1.7427194e-38
0.047586668 -0.22761334 0.60200006 1.7334998e-38
0.048733339 -0.22761334 0.60200006 1.7335354e-38
0.04996286 -0.22799145 0.60300004 1.7335354e-38
0.051196195 -0.22836953 0.60400003 1.742718e-38
0.052346669 -0.22836953 0.60400003 1.742718e-38
0.053497147 -0.22836953 0.60400003 1.7242793e-38
0.054919053 -0.22950383 0.60700005 1.7334988e-38
0.056075241 -0.22950383 0.60700005 1.7334621e-38
0.057325717 -0.22988193 0.60800004 1.7334621e-38
0.058580004 -0.23026001 0.60900003 1.7427184e-38
0.059739999 -0.23026001 0.60900003 1.7334988e-38
0.061000001 -0.23063809 0.61000001 1.7243144e-38
0.062263809 -0.23101619 0.611 1.7243144e-38
0.063531436 -0.23139431 0.61200005 1.7334984e-38
0.064908572 -0.23215048 0.61400002 1.7334984e-38
0.066185713 -0.23252857 0.61500001 1.7334632e-38
0.067466669 -0.23290668 0.61600006 1.7426828e-38
0.068974286 -0.23404096 0.61900002 1.7703767e-38
0.07038001 -0.23479715 0.62100005 1.8625723e-38
0.071678095 -0.23517525 0.62200004 1.8810833e-38
0.072980002 -0.23555334 0.62300003 1.8165464e-38
0.074166663 -0.23555334 0.62300003 1.7336063e-38
0.07583715 -0.23706572 0.62700003 1.7336063e-38
0.077154286 -0.23744382 0.62800002 1.7704853e-38
0.087360002 -0.23593144 0.62400001 1.7058401e-38
0.088548578 -0.23593144 0.62400001 1.3004037e-38
0.08973714 -0.23593144 0.62400001 1.2543059e-38
0.090925716 -0.23593144 0.62400001 1.1073248e-38
0.091819048 -0.23517525 0.62200004 1.0335683e-38
0.093003817 -0.23517525 0.62200004 1.0335699e-38
0.094188571 -0.23517525 0.62200004 1.0335699e-38
0.09537334 -0.23517525 0.62200004 1.1899745e-38
-0.024678096 -0.23775239 0.63200003 1.9271448e-38
-0.023437144 -0.2373762 0.63100004 1.9362925e-38
-0.022200001 -0.23700002 0.63000005 1.5582904e-38
-0.020966666 -0.23662381 0.62900001 1.374044e-38
-0.019737143 -0.23624763 0.62800002 1.4201419e-38
-0.01845238 -0.23511904 0.625 1.4476568e-38
-0.01717905 -0.23399049 0.62200004 1.4384372e-38
-0.015942857 -0.2332381 0.62 1.4475838e-38
-0.014738095 -0.23286191 0.61900002 1.4752425e-38
-0.013537143 -0.23248573 0.61800003 1.4660585e-38
-0.012320001 -0.23173335 0.61600006 1.5029367e-38
-0.011128572 -0.23135714 0.61500001 1.475386e-38
-0.009940953 -0.23098096 0.61400002 1.4200686e-38
-0.0087428577 -0.23022859 0.61200005 1.3831538e-38
-0.0075523811 -0.2294762 0.61000001 1.4753494e-38
-0.0063800002 -0.2291 0.60900003 1.4845706e-38
-0.0052114287 -0.22872382 0.60800004 1.5122293e-38
-0.0040466674 -0.22834763 0.60700005 1.5214133e-38
-0.0028904765 -0.22834763 0.60700005 1.5214133e-38
-0.0017314287 -0.22797142 0.60600001 1.5214849e-38
-0.00057714287 -0.22797142 0.60600001 1.5583631e-38
0.00057714287 -0.22797142 0.60600001 1.5583267e-38
0.0017314287 -0.22797142 0.60600001 1.5767658e-38
0.0028761907 -0.22721906 0.60400003 1.5767658e-38
0.0040266667 -0.22721906 0.60400003 1.5859854e-38
0.0051685721 -0.22684287 0.60300004 1.5768025e-38
0.0063066673 -0.22646669 0.60200006 1.5768025e-38
0.0074533341 -0.22646669 0.60200006 1.5860224e-38
0.0085857147 -0.22609048 0.60100001 1.595242e-38
0.009730476 -0.22609048 0.60100001 1.6136445e-38
0.010875239 -0.22609048 0.60100001 1.6136445e-38
0.01202 -0.22609048 0.60100001 1.6227922e-38
0.013142857 -0.2257143 0.60000002 1.6320117e-38
0.014285715 -0.2257143 0.60000002 1.641196e-38
0.015402857 -0.2253381 0.59900004 1.6688547e-38
0.016543809 -0.2253381 0.59900004 1.6505223e-38
0.017684761 -0.2253381 0.59900004 1.6505223e-38
0.018825715 -0.2253381 0.59900004 1.6689255e-38
0.019966668 -0.2253381 0.59900004 1.6965841e-38
0.021072382 -0.22496192 0.59800005 1.6965839e-38
0.022211431 -0.22496192 0.59800005 1.6965839e-38
0.023350477 -0.22496192 0.59800005 1.687401e-38
0.024489526 -0.22496192 0.59800005 1.7242793e-38
0.025628572 -0.22496192 0.59800005 1.7243144e-38
0.026767621 -0.22496192 0.59800005 1.7243144e-38
0.027860001 -0.22458571 0.597 1.7243144e-38
0.028997144 -0.22458571 0.597 1.7243144e-38
0.030184764 -0.22496192 0.59800005 1.6873654e-38
0.031323813 -0.22496192 0.59800005 1.7242437e-38
0.032462858 -0.22496192 0.59800005 1.724244e-38
0.033601906 -0.22496192 0.59800005 1.7334635e-38
0.034799047 -0.2253381 0.59900004 1.7242805e-38
0.035940003 -0.2253381 0.59900004 1.7427197e-38
0.037142858 -0.2257143 0.60000002 1.7427547e-38
0.038285714 -0.2257143 0.60000002 1.7427547e-38
0.039428573 -0.2257143 0.60000002 1.7427184e-38
0.040571429 -0.2257143 0.60000002 1.751938e-38
0.041714288 -0.2257143 0.60000002 1.7519024e-38
0.042857144 -0.2257143 0.60000002 1.7611219e-38
0.044073332 -0.22609048 0.60100001 1.742718e-38
0.045218095 -0.22609048 0.60100001 1.7519375e-38
0.046362858 -0.22609048 0.60100001 1.7519745e-38
0.047586668 -0.22646669 0.60200006 1.742755e-38
0.048733339 -0.22646669 0.60200006 1.7242802e-38
0.050045718 -0.22721906 0.60400003 1.7334998e-38
0.051196195 -0.22721906 0.60400003 1.7427184e-38
0.052346669 -0.22721906 0.60400003 1.7427184e-38
0.053674288 -0.22797142 0.60600001 1.7242793e-38
0.054919053 -0.22834763 0.60700005 1.7334988e-38
0.056075241 -0.22834763 0.60700005 1.7243142e-38
0.057325717 -0.22872382 0.60800004 1.7243142e-38
0.058580004 -0.2291 0.60900003 1.7334988e-38
0.059838098 -0.2294762 0.61000001 1.7242793e-38
0.061099999 -0.22985238 0.611 1.7243142e-38
0.062263809 -0.22985238 0.611 1.7243142e-38
0.063531436 -0.23022859 0.61200005 1.7242793e-38
0.064908572 -0.23098096 0.61400002 1.7242793e-38
0.066293344 -0.23173335 0.61600006 1.7426828e-38
0.067466669 -0.23173335 0.61600006 1.7519024e-38
0.069085717 -0.2332381 0.62 1.7427899e-38
0.07038001 -0.2336143 0.62100005 1.8349855e-38
0.071793333 -0.23436667 0.62300003 1.8626442e-38
0.072980002 -0.23436667 0.62300003 1.8257659e-38
0.074166663 -0.23436667 0.62300003 1.7797394e-38
0.07583715 -0.23587143 0.62700003 1.7613003e-38
0.077154286 -0.23624763 0.62800002 1.8257291e-38
0.080742866 -0.23624763 0.62800002 1.9272164e-38
0.081939049 -0.23624763 0.62800002 2.0100843e-38
0.083002865 -0.23587143 0.62700003 2.1391571e-38
0.084197149 -0.23587143 0.62700003 2.1576677e-38
0.087360002 -0.23474286 0.62400001 1.3836236e-38
0.088548578 -0.23474286 0.62400001 1.2451141e-38
0.08973714 -0.23474286 0.62400001 1.0791619e-38
0.090925716 -0.23474286 0.62400001 1.079088e-38
0.091966666 -0.23436667 0.62300003 1.1067466e-38
0.093153335 -0.23436667 0.62300003 1.0514326e-38
0.094188571 -0.23399049 0.62200004 1.0883109e-38
0.09537334 -0.23399049 0.62200004 1.1250072e-38
0.096558101 -0.23399049 0.62200004 1.1157877e-38
0.097428575 -0.2332381 0.62 1.3000312e-38
0.098609522 -0.2332381 0.62 1.3553486e-38
0.099790476 -0.2332381 0.62 1.7148021e-38
0.10097143 -0.2332381 0.62 2.0006086e-38
0.10215238 -0.2332381 0.62 2.2496462e-38
0.10333333 -0.2332381 0.62 2.323402e-38
0.10451429 -0.2332381 0.62 2.3234378e-38
0.10569524 -0.2332381 0.62 2.1298269e-38
0.10687619 -0.2332381 0.62 1.853605e-38
-0.024678096 -0.23654857 0.63200003 1.9179616e-38
-0.023400001 -0.23580003 0.63000005 1.9270729e-38
-0.022164762 -0.23542571 0.62900001 1.5398513e-38
-0.020933334 -0.23505142 0.62800002 1.3648245e-38
-0.019705717 -0.23467715 0.62700003 1.4478006e-38
-0.01845238 -0.23392858 0.625 1.4568763e-38
-0.01717905 -0.23280573 0.62200004 1.4384372e-38
-0.015968572 -0.23243146 0.62100005 1.4660948e-38
-0.014761904 -0.23205714 0.62 1.4937535e-38
-0.013559048 -0.23168287 0.61900002 1.4753143e-38
-0.01236 -0.23130858 0.61800003 1.4753143e-38
-0.011128572 -0.23018572 0.61500001 1.4753143e-38
-0.009940953 -0.22981143 0.61400002 1.4476557e-38
-0.0087571433 -0.22943716 0.61300004 1.4200337e-38
-0.0075523811 -0.2283143 0.61000001 1.4937902e-38
-0.0063904761 -0.2283143 0.61000001 1.5029747e-38
-0.0052200002 -0.22794001 0.60900003 1.539853e-38
-0.0040533338 -0.22756572 0.60800004 1.5490723e-38
-0.0028952383 -0.22756572 0.60800004 1.5398527e-38
-0.0017342858 -0.22719145 0.60700005 1.5398524e-38
-0.00057714287 -0.22681715 0.60600001 1.5675111e-38
0.00057714287 -0.22681715 0.60600001 1.5675463e-38
0.0017314287 -0.22681715 0.60600001 1.5675463e-38
0.0028857142 -0.22681715 0.60600001 1.5768014e-38
0.0040266667 -0.22606857 0.60400003 1.586021e-38
0.0051685721 -0.2256943 0.60300004 1.5859502e-38
0.0063171433 -0.2256943 0.60300004 1.5951698e-38
0.0074533341 -0.22532003 0.60200006 1.5951698e-38
0.0086000003 -0.22532003 0.60200006 1.5951698e-38
0.009730476 -0.22494572 0.60100001 1.6136445e-38
0.010875239 -0.22494572 0.60100001 1.6136445e-38
0.01202 -0.22494572 0.60100001 1.6227569e-38
0.013142857 -0.22457142 0.60000002 1.6504156e-38
0.014285715 -0.22457142 0.60000002 1.632048e-38
0.015428572 -0.22457142 0.60000002 1.6597067e-38
0.016543809 -0.22419715 0.59900004 1.6597419e-38
0.017684761 -0.22419715 0.59900004 1.6597419e-38
0.018825715 -0.22419715 0.59900004 1.6597423e-38
0.019966668 -0.22419715 0.59900004 1.6966206e-38
0.021072382 -0.22382288 0.59800005 1.6965836e-38
0.022211431 -0.22382288 0.59800005 1.6965836e-38
0.023350477 -0.22382288 0.59800005 1.6873654e-38
0.024489526 -0.22382288 0.59800005 1.7150241e-38
0.025628572 -0.22382288 0.59800005 1.7150597e-38
0.026767621 -0.22382288 0.59800005 1.7334988e-38
0.027906667 -0.22382288 0.59800005 1.7334984e-38
0.029045716 -0.22382288 0.59800005 1.7334984e-38
0.03023524 -0.22419715 0.59900004 1.7427184e-38
0.031376194 -0.22419715 0.59900004 1.751938e-38
0.032517143 -0.22419715 0.59900004 1.7334635e-38
0.033658098 -0.22419715 0.59900004 1.7426831e-38
0.034799047 -0.22419715 0.59900004 1.7426828e-38
0.036000002 -0.22457142 0.60000002 1.7611219e-38
0.037142858 -0.22457142 0.60000002 1.751938e-38
0.038285714 -0.22457142 0.60000002 1.7427184e-38
0.039428573 -0.22457142 0.60000002 1.751938e-38
0.040571429 -0.22457142 0.60000002 1.751938e-38
0.04178381 -0.22494572 0.60100001 1.751938e-38
0.042928573 -0.22494572 0.60100001 1.751938e-38
0.044073332 -0.22494572 0.60100001 1.7519375e-38
0.045218095 -0.22494572 0.60100001 1.7519375e-38
0.046362858 -0.22494572 0.60100001 1.751974e-38
0.047586668 -0.22532003 0.60200006 1.751974e-38
0.048814289 -0.2256943 0.60300004 1.7243158e-38
0.050045718 -0.22606857 0.60400003 1.7243158e-38
0.051365715 -0.22681715 0.60600001 1.7334988e-38
0.052519999 -0.22681715 0.60600001 1.7427184e-38
0.053762861 -0.22719145 0.60700005 1.7334988e-38
0.054919053 -0.22719145 0.60700005 1.7150597e-38
0.056075241 -0.22719145 0.60700005 1.7242423e-38
0.057420004 -0.22794001 0.60900003 1.7334618e-38
0.058676191 -0.2283143 0.61000001 1.7242788e-38
0.059838098 -0.2283143 0.61000001 1.7058397e-38
0.061099999 -0.22868857 0.611 1.7150583e-38
0.062263809 -0.22868857 0.611 1.7334974e-38
0.063531436 -0.22906287 0.61200005 1.7334988e-38
0.064908572 -0.22981143 0.61400002 1.7242793e-38
0.066293344 -0.23056002 0.61600006 1.7334632e-38
0.067466669 -0.23056002 0.61600006 1.7611219e-38
0.068974286 -0.23168287 0.61900002 1.7427544e-38
0.07049334 -0.23280573 0.62200004 1.83495e-38
0.071793333 -0.23318 0.62300003 1.8626442e-38
0.072980002 -0.23318 0.62300003 1.8626442e-38
0.074166663 -0.23318 0.62300003 1.8073984e-38
0.07583715 -0.23467715 0.62700003 1.7889593e-38
0.077154286 -0.23505142 0.62800002 1.798107e-38
0.078350477 -0.23505142 0.62800002 1.8903026e-38
0.079673328 -0.23542571 0.62900001 1.9179969e-38
0.080742866 -0.23505142 0.62800002 2.0470705e-38
0.081939049 -0.23505142 0.62800002 2.0469626e-38
0.083002865 -0.23467715 0.62700003 1.9178887e-38
0.084197149 -0.23467715 0.62700003 1.6230481e-38
0.085119046 -0.23392858 0.625 1.2911438e-38
0.086309522 -0.23392858 0.625 1.1255472e-38
0.087360002 -0.23355429 0.62400001 9.5959504e-39
0.088548578 -0.23355429 0.62400001 9.9625609e-39
0.08973714 -0.23355429 0.62400001 1.0423539e-38
0.090925716 -0.23355429 0.62400001 1.1711394e-38
0.091966666 -0.23318 0.62300003 1.3002133e-38
0.093153335 -0.23318 0.62300003 1.3186551e-38
0.094188571 -0.23280573 0.62200004 1.3186551e-38
0.095220007 -0.23243146 0.62100005 1.2357516e-38
0.096402861 -0.23243146 0.62100005 1.143556e-38
0.097428575 -0.23205714 0.62 1.1251151e-38
0.098609522 -0.23205714 0.62 1.0882369e-38
0.099790476 -0.23205714 0.62 1.0423588e-38
0.10097143 -0.23205714 0.62 1.3927022e-38
0.10215238 -0.23205714 0.62 1.75197e-38
0.10333333 -0.23205714 0.62 2.1760699e-38
0.10451429 -0.23205714 0.62 2.3326213e-38
0.10569524 -0.23205714 0.62 2.3141822e-38
0.10687619 -0.23205714 0.62 2.0930591e-38
-0.024678096 -0.23534477 0.63200003 1.9179616e-38
-0.023400001 -0.23460001 0.63000005 1.9179253e-38
-0.022164762 -0.23422763 0.62900001 1.5214841e-38
-0.020933334 -0.23385523 0.62800002 1.3279822e-38
-0.019705717 -0.23348287 0.62700003 1.4293974e-38
-0.01845238 -0.23273809 0.625 1.4661315e-38
-0.017234286 -0.23236573 0.62400001 1.4476924e-38
-0.015994286 -0.23162097 0.62200004 1.4569834e-38
-0.014761904 -0.23087619 0.62 1.466203e-38
-0.013559048 -0.23050381 0.61900002 1.4753506e-38
-0.01236 -0.23013145 0.61800003 1.4661311e-38
-0.011128572 -0.22901428 0.61500001 1.4660951e-38
-0.009940953 -0.22864191 0.61400002 1.4568755e-38
-0.0087571433 -0.22826953 0.61300004 1.4384364e-38
-0.0075523811 -0.22715239 0.61000001 1.5029733e-38
-0.0063904761 -0.22715239 0.61000001 1.4938268e-38
-0.0052200002 -0.22678 0.60900003 1.5214855e-38
-0.0040600002 -0.22678 0.60900003 1.5398524e-38
-0.0028952383 -0.22640763 0.60800004 1.5398524e-38
-0.0017342858 -0.22603525 0.60700005 1.5583267e-38
-0.00057809526 -0.22603525 0.60700005 1.5675463e-38
0.00057714287 -0.22566286 0.60600001 1.5675463e-38
0.0017314287 -0.22566286 0.60600001 1.5675463e-38
0.0028857142 -0.22566286 0.60600001 1.5859494e-38
0.00404 -0.22566286 0.60600001 1.5951689e-38
0.005177143 -0.22491811 0.60400003 1.5675111e-38
0.0063276193 -0.22491811 0.60400003 1.5951698e-38
0.0074657151 -0.22454572 0.60300004 1.6043894e-38
0.0086142868 -0.22454572 0.60300004 1.6136089e-38
0.0097628571 -0.22454572 0.60300004 1.6228641e-38
0.010893334 -0.22417335 0.60200006 1.6136445e-38
0.01202 -0.22380094 0.60100001 1.6043894e-38
0.013164761 -0.22380094 0.60100001 1.632048e-38
0.014285715 -0.22342858 0.60000002 1.6321199e-38
0.015428572 -0.22342858 0.60000002 1.6505591e-38
0.01657143 -0.22342858 0.60000002 1.6597775e-38
0.017684761 -0.2230562 0.59900004 1.6597775e-38
0.018825715 -0.2230562 0.59900004 1.6689619e-38
0.019966668 -0.2230562 0.59900004 1.6781814e-38
0.021107621 -0.2230562 0.59900004 1.6689619e-38
0.022248574 -0.2230562 0.59900004 1.6966206e-38
0.023389526 -0.2230562 0.59900004 1.696585e-38
0.02457143 -0.22342858 0.60000002 1.7150241e-38
0.025714288 -0.22342858 0.60000002 1.7150597e-38
0.026812382 -0.2230562 0.59900004 1.7427184e-38
0.027953334 -0.2230562 0.59900004 1.7335703e-38
0.029094286 -0.2230562 0.59900004 1.7427899e-38
0.03023524 -0.2230562 0.59900004 1.7427899e-38
0.031376194 -0.2230562 0.59900004 1.7427899e-38
0.032517143 -0.2230562 0.59900004 1.7242437e-38
0.033714287 -0.22342858 0.60000002 1.7334632e-38
0.034857146 -0.22342858 0.60000002 1.7242437e-38
0.036000002 -0.22342858 0.60000002 1.7519024e-38
0.037142858 -0.22342858 0.60000002 1.7334632e-38
0.038285714 -0.22342858 0.60000002 1.7426828e-38
0.039428573 -0.22342858 0.60000002 1.7611571e-38
0.04063905 -0.22380094 0.60100001 1.7519375e-38
0.04178381 -0.22380094 0.60100001 1.7611575e-38
0.042928573 -0.22380094 0.60100001 1.7611575e-38
0.044146668 -0.22417335 0.60200006 1.751974e-38
0.045293339 -0.22417335 0.60200006 1.751974e-38
0.046440005 -0.22417335 0.60200006 1.7519742e-38
0.047665719 -0.22454572 0.60300004 1.7519742e-38
0.04889524 -0.22491811 0.60400003 1.7334635e-38
0.05021143 -0.22566286 0.60600001 1.7334635e-38
0.051365715 -0.22566286 0.60600001 1.7334632e-38
0.052606668 -0.22603525 0.60700005 1.7426828e-38
0.053762861 -0.22603525 0.60700005 1.7426828e-38
0.055009525 -0.22640763 0.60800004 1.7334632e-38
0.056260001 -0.22678 0.60900003 1.7150593e-38
0.057514288 -0.22715239 0.61000001 1.7334984e-38
0.058676191 -0.22715239 0.61000001 1.7334632e-38
0.059936188 -0.22752476 0.611 1.7242437e-38
0.061099999 -0.22752476 0.611 1.7334618e-38
0.062263809 -0.22752476 0.611 1.7426814e-38
0.063531436 -0.22789717 0.61200005 1.7427184e-38
0.065014288 -0.22901428 0.61500001 1.7334988e-38
0.066293344 -0.22938669 0.61600006 1.7334988e-38
0.067685723 -0.23013145 0.61800003 1.7334988e-38
0.068974286 -0.23050381 0.61900002 1.7243507e-38
0.07049334 -0.23162097 0.62200004 1.8073268e-38
0.071793333 -0.23199335 0.62300003 1.8533892e-38
0.07309714 -0.23236573 0.62400001 1.8626087e-38
0.074285716 -0.23236573 0.62400001 1.844205e-38
0.075958095 -0.23385523 0.62800002 1.8349855e-38
0.077154286 -0.23385523 0.62800002 1.8350215e-38
0.078350477 -0.23385523 0.62800002 1.8995584e-38
0.079673328 -0.23422763 0.62900001 1.9364004e-38
0.080742866 -0.23385523 0.62800002 1.9917178e-38
0.081939049 -0.23385523 0.62800002 2.0469626e-38
0.083002865 -0.23348287 0.62700003 1.7519366e-38
0.08392857 -0.23273809 0.625 1.5768365e-38
0.085119046 -0.23273809 0.625 1.1619561e-38
0.086309522 -0.23273809 0.625 1.1709962e-38
0.087499999 -0.23273809 0.625 1.1617766e-38
0.088548578 -0.23236573 0.62400001 1.1341179e-38
0.08973714 -0.23236573 0.62400001 1.3277288e-38
0.090925716 -0.23236573 0.62400001 1.5026847e-38
0.091966666 -0.23199335 0.62300003 1.5487825e-38
0.093153335 -0.23199335 0.62300003 1.7146627e-38
0.094188571 -0.23162097 0.62200004 1.687004e-38
0.095220007 -0.23124859 0.62100005 1.5767307e-38
0.096402861 -0.23124859 0.62100005 1.3739003e-38
0.097585723 -0.23124859 0.62100005 1.336952e-38
0.098609522 -0.23087619 0.62 1.2170976e-38
0.099790476 -0.23087619 0.62 1.0423899e-38
0.10097143 -0.23087619 0.62 1.060829e-38
0.10231715 -0.23124859 0.62100005 1.5396599e-38
0.10333333 -0.23087619 0.62 2.000638e-38
0.10451429 -0.23087619 0.62 2.2587223e-38
0.10569524 -0.23087619 0.62 2.2956003e-38
0.10687619 -0.23087619 0.62 2.2312074e-38
0.10805714 -0.23087619 0.62 1.9269618e-38
-0.024678096 -0.23414096 0.63200003 1.9640228e-38
-0.023437144 -0.23377049 0.63100004 1.9271448e-38
-0.022200001 -0.23340002 0.63000005 1.5307036e-38
-0.020966666 -0.23302951 0.62900001 1.3648245e-38
-0.019737143 -0.23265906 0.62800002 1.4478006e-38
-0.018511429 -0.23228858 0.62700003 1.4569479e-38
-0.017234286 -0.23117715 0.62400001 1.4477284e-38
-0.015994286 -0.23043619 0.62200004 1.4477638e-38
-0.014761904 -0.22969525 0.62 1.4569834e-38
-0.013559048 -0.22932476 0.61900002 1.4661315e-38
-0.012320001 -0.22821335 0.61600006 1.4753511e-38
-0.011146668 -0.22821335 0.61600006 1.502973e-38
-0.009940953 -0.22747238 0.61400002 1.5121926e-38
-0.0087571433 -0.22710192 0.61300004 1.4937898e-38
-0.0075771436 -0.22673145 0.61200005 1.5030093e-38
-0.0063904761 -0.22599049 0.61000001 1.4938265e-38
-0.0052200002 -0.22562002 0.60900003 1.5122656e-38
-0.0040600002 -0.22562002 0.60900003 1.5214849e-38
-0.0028952383 -0.22524953 0.60800004 1.5307045e-38
-0.0017371429 -0.22524953 0.60800004 1.5398524e-38
-0.00057809526 -0.22487906 0.60700005 1.5675111e-38
0.00057809526 -0.22487906 0.60700005 1.5675463e-38
0.0017314287 -0.22450858 0.60600001 1.5675463e-38
0.0028857142 -0.22450858 0.60600001 1.5859491e-38
0.00404 -0.22450858 0.60600001 1.5951687e-38
0.0051942859 -0.22450858 0.60600001 1.5859142e-38
0.0063485713 -0.22450858 0.60600001 1.6043533e-38
0.0074780956 -0.22376762 0.60400003 1.5951698e-38
0.0086285714 -0.22376762 0.60400003 1.6043894e-38
0.0097790482 -0.22376762 0.60400003 1.6136445e-38
0.010911429 -0.22339715 0.60300004 1.6228641e-38
0.012040001 -0.22302669 0.60200006 1.6228285e-38
0.013186668 -0.22302669 0.60200006 1.6504872e-38
0.014309525 -0.22265619 0.60100001 1.6413032e-38
0.015454287 -0.22265619 0.60100001 1.6689619e-38
0.01657143 -0.22228572 0.60000002 1.6689615e-38
0.017714286 -0.22228572 0.60000002 1.7150593e-38
0.018857144 -0.22228572 0.60000002 1.6873291e-38
0.02 -0.22228572 0.60000002 1.6781096e-38
0.021142857 -0.22228572 0.60000002 1.6872938e-38
0.022285715 -0.22228572 0.60000002 1.7149525e-38
0.023428572 -0.22228572 0.60000002 1.7057329e-38
0.02461238 -0.22265619 0.60100001 1.7057329e-38
0.025757143 -0.22265619 0.60100001 1.7058051e-38
0.026857143 -0.22228572 0.60000002 1.7519029e-38
