# .PCD v0.7 - Point Cloud Data file format
VERSION 0.7
FIELDS x y z rgb
SIZE 4 4 4 4
TYPE F F F F
COUNT 1 1 1 1
WIDTH 986
HEIGHT 1
VIEWPOINT 0 0 0 1 0 0 0
POINTS 986
DATA ascii
0.069246665 -0.22636095 0.611 1.4661661e-38
0.070295244 -0.22599049 0.61000001 1.2727375e-38
0.071340002 -0.22562002 0.60900003 1.0514679e-38
0.07238096 -0.22524953 0.60800004 9.9614721e-39
0.073418096 -0.22487906 0.60700005 9.5004939e-39
0.074451432 -0.22450858 0.60600001 9.6823979e-39
0.075605713 -0.22450858 0.60600001 9.2214197e-39
0.076760001 -0.22450858 0.60600001 9.49798e-39
0.077657141 -0.22376762 0.60400003 1.2356044e-38
0.078546673 -0.22302669 0.60200006 1.4752746e-38
0.07956095 -0.22265619 0.60100001 1.7242028e-38
0.080437146 -0.22191525 0.59900004 1.7703404e-38
0.081578098 -0.22191525 0.59900004 1.7887795e-38
0.082580961 -0.22154479 0.59800005 1.7336041e-38
0.083720006 -0.22154479 0.59800005 1.4293585e-38
0.084717147 -0.22117428 0.597 1.245326e-38
0.085854284 -0.22117428 0.597 1.2268868e-38
0.086991429 -0.22117428 0.597 1.5215914e-38
0.088128574 -0.22117428 0.597 1.825837e-38
0.089415245 -0.22154479 0.59800005 2.0193379e-38
0.09055429 -0.22154479 0.59800005 2.1760705e-38
0.091846667 -0.22191525 0.59900004 2.1668507e-38
0.09314286 -0.22228572 0.60000002 1.9640203e-38
0.094600007 -0.22302669 0.60200006 1.8811557e-38
0.095746674 -0.22302669 0.60200006 1.9272536e-38
-0.024678096 -0.23293716 0.63200003 1.7152042e-38
-0.023437144 -0.23256859 0.63100004 1.7427899e-38
-0.022200001 -0.23220003 0.63000005 1.549179e-38
-0.021000002 -0.23220003 0.63000005 1.3556761e-38
-0.019768571 -0.23183143 0.62900001 1.2173827e-38
-0.018540952 -0.23146287 0.62800002 1.2634093e-38
-0.017317142 -0.2310943 0.62700003 1.2818484e-38
-0.016045714 -0.22998857 0.62400001 1.2634093e-38
-0.014785715 -0.22888288 0.62100005 1.3095071e-38
-0.013559048 -0.22814572 0.61900002 1.3095057e-38
-0.01238 -0.22814572 0.61900002 1.3095057e-38
-0.011182858 -0.22777715 0.61800003 1.31869e-38
-0.0099733341 -0.22704002 0.61600006 1.3279095e-38
-0.0087857144 -0.22667143 0.61500001 1.327946e-38
-0.0076019051 -0.22630286 0.61400002 1.327946e-38
-0.006432381 -0.22630286 0.61400002 1.3279811e-38
-0.0052457144 -0.22556573 0.61200005 1.3372007e-38
-0.0040800003 -0.22556573 0.61200005 1.3372007e-38
-0.0029095239 -0.22519714 0.611 1.3464203e-38
-0.0017428572 -0.22482857 0.61000001 1.3647878e-38
-0.00057999999 -0.22446001 0.60900003 1.3647878e-38
0.00057904766 -0.22409144 0.60800004 1.3832269e-38
0.0017371429 -0.22409144 0.60800004 1.3924465e-38
0.0028904765 -0.22372288 0.60700005 1.392411e-38
0.0040466674 -0.22372288 0.60700005 1.4016306e-38
0.0051942859 -0.22335428 0.60600001 1.4108501e-38
0.0063485713 -0.22335428 0.60600001 1.4200697e-38
0.0075028571 -0.22335428 0.60600001 1.410922e-38
0.0086571425 -0.22335428 0.60600001 1.4201416e-38
0.0098114284 -0.22335428 0.60600001 1.4201416e-38
0.010929525 -0.22261715 0.60400003 1.4293611e-38
0.012080001 -0.22261715 0.60400003 1.4385803e-38
0.013230477 -0.22261715 0.60400003 1.4570194e-38
0.014357143 -0.22224858 0.60300004 1.4570198e-38
0.015505716 -0.22224858 0.60300004 1.4662394e-38
0.016654287 -0.22224858 0.60300004 1.4662394e-38
0.017802857 -0.22224858 0.60300004 1.475459e-38
0.018920001 -0.22188002 0.60200006 1.4754592e-38
0.020066667 -0.22188002 0.60200006 1.5031179e-38
0.021213336 -0.22188002 0.60200006 1.5031177e-38
0.022360003 -0.22188002 0.60200006 1.5031177e-38
0.023506669 -0.22188002 0.60200006 1.5031177e-38
0.02461238 -0.22151144 0.60100001 1.5215568e-38
0.025757143 -0.22151144 0.60100001 1.5215564e-38
0.026857143 -0.22114287 0.60000002 1.5399955e-38
0.028000001 -0.22114287 0.60000002 1.5215568e-38
0.029191429 -0.22151144 0.60100001 1.5399959e-38
0.03033619 -0.22151144 0.60100001 1.5492164e-38
0.031480953 -0.22151144 0.60100001 1.5492164e-38
0.032625712 -0.22151144 0.60100001 1.549252e-38
0.033770476 -0.22151144 0.60100001 1.549252e-38
0.034915239 -0.22151144 0.60100001 1.5123738e-38
0.036120001 -0.22188002 0.60200006 1.5584716e-38
0.037266672 -0.22188002 0.60200006 1.5493243e-38
0.038413335 -0.22188002 0.60200006 1.5401048e-38
0.039560005 -0.22188002 0.60200006 1.5584716e-38
0.040706672 -0.22188002 0.60200006 1.5584716e-38
0.04192286 -0.22224858 0.60300004 1.558436e-38
0.043142859 -0.22261715 0.60400003 1.558436e-38
0.044293337 -0.22261715 0.60400003 1.5584716e-38
0.045443811 -0.22261715 0.60400003 1.5584716e-38
0.046748575 -0.22335428 0.60600001 1.5676912e-38
0.047902856 -0.22335428 0.60600001 1.5676912e-38
0.049057145 -0.22335428 0.60600001 1.5676912e-38
0.050294291 -0.22372288 0.60700005 1.5769107e-38
0.051535241 -0.22409144 0.60800004 1.5676909e-38
0.052780002 -0.22446001 0.60900003 1.5584713e-38
0.053940002 -0.22446001 0.60900003 1.5493241e-38
0.055100001 -0.22446001 0.60900003 1.5585436e-38
0.056260001 -0.22446001 0.60900003 1.5585436e-38
0.057608571 -0.22519714 0.611 1.5769828e-38
0.058868576 -0.22556573 0.61200005 1.6044975e-38
0.060034286 -0.22556573 0.61200005 1.6229367e-38
0.061300006 -0.2259343 0.61300004 1.6414474e-38
0.062569529 -0.22630286 0.61400002 1.650667e-38
0.063842863 -0.22667143 0.61500001 1.6414826e-38
0.065014288 -0.22667143 0.61500001 1.7428978e-38
0.066078097 -0.22630286 0.61400002 1.7704853e-38
0.067028575 -0.22556573 0.61200005 1.7981439e-38
0.068194285 -0.22556573 0.61200005 1.6875455e-38
0.069246665 -0.22519714 0.611 1.2726652e-38
0.070410475 -0.22519714 0.611 1.2448606e-38
0.07145714 -0.22482857 0.61000001 1.1065671e-38
0.072499998 -0.22446001 0.60900003 1.0788709e-38
0.073418096 -0.22372288 0.60700005 1.014334e-38
0.074451432 -0.22335428 0.60600001 9.5901756e-39
0.075605713 -0.22335428 0.60600001 9.2213931e-39
0.076760001 -0.22335428 0.60600001 9.868573e-39
0.077657141 -0.22261715 0.60400003 1.4017376e-38
0.078546673 -0.22188002 0.60200006 1.4756755e-38
0.07969334 -0.22188002 0.60200006 1.696945e-38
0.081441909 -0.22040574 0.59800005 1.7336782e-38
0.082580961 -0.22040574 0.59800005 1.7336433e-38
0.083720006 -0.22040574 0.59800005 1.6414477e-38
0.084717147 -0.22003715 0.597 1.3468182e-38
0.085854284 -0.22003715 0.597 1.1993052e-38
0.086845718 -0.21966858 0.59600002 1.3282285e-38
0.087980956 -0.21966858 0.59600002 1.7431088e-38
0.089265719 -0.22003715 0.597 1.8074334e-38
0.09055429 -0.22040574 0.59800005 2.0287029e-38
0.091693342 -0.22040574 0.59800005 2.1852898e-38
0.092987627 -0.22077431 0.59900004 2.0101181e-38
0.094600007 -0.22188002 0.60200006 1.853605e-38
0.095746674 -0.22188002 0.60200006 1.8812636e-38
0.09689334 -0.22188002 0.60200006 1.9088496e-38
-0.02463905 -0.23136668 0.63100004 1.7244237e-38
-0.023437144 -0.23136668 0.63100004 1.7427899e-38
-0.022200001 -0.23100002 0.63000005 1.5399595e-38
-0.020966666 -0.23063333 0.62900001 1.3556395e-38
-0.019737143 -0.23026668 0.62800002 1.198907e-38
-0.018511429 -0.22990002 0.62700003 1.2541897e-38
-0.017261904 -0.22916667 0.625 1.2818484e-38
-0.016045714 -0.2288 0.62400001 1.2726289e-38
-0.014785715 -0.22770002 0.62100005 1.3187267e-38
-0.013559048 -0.22696666 0.61900002 1.3187253e-38
-0.01238 -0.22696666 0.61900002 1.3095057e-38
-0.011182858 -0.22660001 0.61800003 1.31869e-38
-0.010005714 -0.22660001 0.61800003 1.3279095e-38
-0.0087857144 -0.2255 0.61500001 1.3278741e-38
-0.0076142857 -0.2255 0.61500001 1.3370936e-38
-0.006432381 -0.22513334 0.61400002 1.3279095e-38
-0.0052542859 -0.22476669 0.61300004 1.3555682e-38
-0.0040800003 -0.22440003 0.61200005 1.3372004e-38
-0.0029095239 -0.22403333 0.611 1.34642e-38
-0.0017428572 -0.22366667 0.61000001 1.3556046e-38
-0.00058095239 -0.22366667 0.61000001 1.3648242e-38
0.00057999999 -0.22330001 0.60900003 1.3556049e-38
0.0017371429 -0.22293335 0.60800004 1.374044e-38
0.0028904765 -0.22256668 0.60700005 1.3831917e-38
0.0040466674 -0.22256668 0.60700005 1.4016309e-38
0.0051942859 -0.22219999 0.60600001 1.4016309e-38
0.0063485713 -0.22219999 0.60600001 1.4016309e-38
0.0075028571 -0.22219999 0.60600001 1.4017027e-38
0.0086571425 -0.22219999 0.60600001 1.4201419e-38
0.0098114284 -0.22219999 0.60600001 1.4201416e-38
0.010965714 -0.22219999 0.60600001 1.4293611e-38
0.012080001 -0.22146668 0.60400003 1.4385803e-38
0.013230477 -0.22146668 0.60400003 1.4477999e-38
0.014380952 -0.22146668 0.60400003 1.4478003e-38
0.015531429 -0.22146668 0.60400003 1.4570198e-38
0.016654287 -0.22110002 0.60300004 1.4662397e-38
0.017802857 -0.22110002 0.60300004 1.4754592e-38
0.018951431 -0.22110002 0.60300004 1.4754236e-38
0.020100001 -0.22110002 0.60300004 1.4846432e-38
0.021248572 -0.22110002 0.60300004 1.4938628e-38
0.022360003 -0.22073334 0.60200006 1.4938628e-38
0.023506669 -0.22073334 0.60200006 1.4939333e-38
0.024653334 -0.22073334 0.60200006 1.5400311e-38
0.025757143 -0.22036667 0.60100001 1.5492506e-38
0.026901904 -0.22036667 0.60100001 1.5492506e-38
0.028046668 -0.22036667 0.60100001 1.5308126e-38
0.029191429 -0.22036667 0.60100001 1.5492518e-38
0.03033619 -0.22036667 0.60100001 1.558436e-38
0.031533338 -0.22073334 0.60200006 1.5492164e-38
0.032680001 -0.22073334 0.60200006 1.549252e-38
0.033826668 -0.22073334 0.60200006 1.5400325e-38
0.034973338 -0.22073334 0.60200006 1.5400325e-38
0.036120001 -0.22073334 0.60200006 1.5584716e-38
0.037266672 -0.22073334 0.60200006 1.5584713e-38
0.038413335 -0.22073334 0.60200006 1.5584713e-38
0.039560005 -0.22073334 0.60200006 1.5584713e-38
0.040706672 -0.22073334 0.60200006 1.5676909e-38
0.04192286 -0.22110002 0.60300004 1.5768754e-38
0.043142859 -0.22146668 0.60400003 1.5676559e-38
0.044293337 -0.22146668 0.60400003 1.5584713e-38
0.045443811 -0.22146668 0.60400003 1.5676909e-38
0.046748575 -0.22219999 0.60600001 1.5676909e-38
0.047981907 -0.22256668 0.60700005 1.5676909e-38
0.049138099 -0.22256668 0.60700005 1.5584713e-38
0.050377145 -0.22293335 0.60800004 1.5584713e-38
0.051620003 -0.22330001 0.60900003 1.5492515e-38
0.052780002 -0.22330001 0.60900003 1.5492515e-38
0.053940002 -0.22330001 0.60900003 1.5493597e-38
0.055190478 -0.22366667 0.61000001 1.5493597e-38
0.056352381 -0.22366667 0.61000001 1.5585792e-38
0.057702862 -0.22440003 0.61200005 1.5585792e-38
0.058964763 -0.22476669 0.61300004 1.6045331e-38
0.060132384 -0.22476669 0.61300004 1.6045331e-38
0.0614 -0.22513334 0.61400002 1.6044975e-38
0.06267143 -0.2255 0.61500001 1.595278e-38
0.063842863 -0.2255 0.61500001 1.6321911e-38
0.064908572 -0.22513334 0.61400002 1.6690694e-38
0.066078097 -0.22513334 0.61400002 1.5953871e-38
0.067028575 -0.22440003 0.61200005 1.4847524e-38
0.068194285 -0.22440003 0.61200005 1.4662746e-38
0.069360003 -0.22440003 0.61200005 1.2542246e-38
0.070410475 -0.22403333 0.611 1.2541149e-38
0.071574286 -0.22403333 0.611 1.1066019e-38
0.072619043 -0.22366667 0.61000001 1.0788e-38
0.073660001 -0.22330001 0.60900003 1.0142631e-38
0.074820004 -0.22330001 0.60900003 9.4983331e-39
0.075980008 -0.22330001 0.60900003 1.1065659e-38
0.076886676 -0.22256668 0.60700005 1.1528131e-38
0.077914283 -0.22219999 0.60600001 1.6506695e-38
0.079068571 -0.22219999 0.60600001 1.7704839e-38
0.084717147 -0.2189 0.597 1.6598888e-38
0.085710481 -0.21853334 0.59600002 1.3095454e-38
0.086845718 -0.21853334 0.59600002 1.2361795e-38
0.087980956 -0.21853334 0.59600002 1.6141816e-38
0.089265719 -0.2189 0.597 1.8442391e-38
0.09055429 -0.21926668 0.59800005 1.8995565e-38
0.091693342 -0.21926668 0.59800005 2.028595e-38
0.092987627 -0.21963336 0.59900004 2.0562537e-38
0.094442859 -0.22036667 0.60100001 1.9272171e-38
0.095746674 -0.22073334 0.60200006 1.8165824e-38
0.09689334 -0.22073334 0.60200006 1.789068e-38
0.098040007 -0.22073334 0.60200006 1.706092e-38
0.099186674 -0.22073334 0.60200006 1.6692133e-38
-0.02463905 -0.23016478 0.63100004 1.7244237e-38
-0.023437144 -0.23016478 0.63100004 1.7520091e-38
-0.022200001 -0.22980002 0.63000005 1.5307396e-38
-0.020966666 -0.22943524 0.62900001 1.3740071e-38
-0.019737143 -0.22907047 0.62800002 1.2172745e-38
-0.018511429 -0.22870572 0.62700003 1.2541178e-38
-0.017261904 -0.22797619 0.625 1.2817765e-38
-0.016045714 -0.22761144 0.62400001 1.2817763e-38
-0.014785715 -0.22651716 0.62100005 1.3094349e-38
-0.013580953 -0.22615239 0.62 1.3003224e-38
-0.01238 -0.22578762 0.61900002 1.309542e-38
-0.011182858 -0.22542287 0.61800003 1.31869e-38
-0.010005714 -0.22542287 0.61800003 1.31869e-38
-0.0088000009 -0.22469336 0.61600006 1.3278743e-38
-0.0076142857 -0.22432856 0.61500001 1.3370939e-38
-0.006432381 -0.22396381 0.61400002 1.3279095e-38
-0.0052628573 -0.22396381 0.61400002 1.3555682e-38
-0.0040800003 -0.2232343 0.61200005 1.3556035e-38
-0.0029142858 -0.2232343 0.61200005 1.3648231e-38
-0.0017457142 -0.22286952 0.611 1.3556042e-38
-0.00058095239 -0.22250476 0.61000001 1.3648238e-38
0.00057999999 -0.22214 0.60900003 1.3739719e-38
0.0017371429 -0.22177525 0.60800004 1.3739719e-38
0.0028904765 -0.2214105 0.60700005 1.3924465e-38
0.0040466674 -0.2214105 0.60700005 1.401666e-38
0.0052028573 -0.2214105 0.60700005 1.4016306e-38
0.0063590482 -0.2214105 0.60700005 1.4016306e-38
0.0075152386 -0.2214105 0.60700005 1.4016306e-38
0.0086571425 -0.22104572 0.60600001 1.4292893e-38
0.0098114284 -0.22104572 0.60600001 1.4201416e-38
0.010965714 -0.22104572 0.60600001 1.4293611e-38
0.01212 -0.22104572 0.60600001 1.4385807e-38
0.013230477 -0.2203162 0.60400003 1.4478003e-38
0.014380952 -0.2203162 0.60400003 1.4478003e-38
0.015531429 -0.2203162 0.60400003 1.4662394e-38
0.016681906 -0.2203162 0.60400003 1.4662394e-38
0.017832382 -0.2203162 0.60400003 1.475459e-38
0.018951431 -0.21995145 0.60300004 1.4754592e-38
0.020100001 -0.21995145 0.60300004 1.4846788e-38
0.021248572 -0.21995145 0.60300004 1.4938981e-38
0.022397144 -0.21995145 0.60300004 1.5031177e-38
0.023545716 -0.21995145 0.60300004 1.5031172e-38
0.024653334 -0.21958669 0.60200006 1.5399955e-38
0.025800001 -0.21958669 0.60200006 1.5400319e-38
0.026946669 -0.21958669 0.60200006 1.5400319e-38
0.028093336 -0.21958669 0.60200006 1.5400322e-38
0.029240003 -0.21958669 0.60200006 1.5492518e-38
0.03038667 -0.21958669 0.60200006 1.5492164e-38
0.031585716 -0.21995145 0.60300004 1.5492164e-38
0.032734286 -0.21995145 0.60300004 1.549252e-38
0.03388286 -0.21995145 0.60300004 1.549252e-38
0.03503143 -0.21995145 0.60300004 1.558435e-38
0.036180001 -0.21995145 0.60300004 1.5676546e-38
0.037328575 -0.21995145 0.60300004 1.5584713e-38
0.038477149 -0.21995145 0.60300004 1.5584713e-38
0.039625715 -0.21995145 0.60300004 1.5768025e-38
0.04077429 -0.21995145 0.60300004 1.5860221e-38
0.04192286 -0.21995145 0.60300004 1.5676912e-38
0.043142859 -0.2203162 0.60400003 1.5676912e-38
0.044439998 -0.22104572 0.60600001 1.5585065e-38
0.045594286 -0.22104572 0.60600001 1.5677261e-38
0.046825718 -0.2214105 0.60700005 1.5676906e-38
0.047981907 -0.2214105 0.60700005 1.5676906e-38
0.04921905 -0.22177525 0.60800004 1.5584713e-38
0.05046 -0.22214 0.60900003 1.5584713e-38
0.051620003 -0.22214 0.60900003 1.5584713e-38
0.052780002 -0.22214 0.60900003 1.5584713e-38
0.054028571 -0.22250476 0.61000001 1.5676909e-38
0.055190478 -0.22250476 0.61000001 1.5676909e-38
0.056352381 -0.22250476 0.61000001 1.5676909e-38
0.057702862 -0.2232343 0.61200005 1.5584713e-38
0.058964763 -0.22359905 0.61300004 1.5584713e-38
0.060132384 -0.22359905 0.61300004 1.5676909e-38
0.0614 -0.22396381 0.61400002 1.5860584e-38
0.06267143 -0.22432856 0.61500001 1.595278e-38
0.063739046 -0.22396381 0.61400002 1.5585436e-38
0.064908572 -0.22396381 0.61400002 1.5585436e-38
0.066078097 -0.22396381 0.61400002 1.5585439e-38
0.067028575 -0.2232343 0.61200005 1.3833722e-38
0.068194285 -0.2232343 0.61200005 1.4015941e-38
0.069360003 -0.2232343 0.61200005 1.2540811e-38
0.070525721 -0.2232343 0.61200005 1.2263136e-38
0.071574286 -0.22286952 0.611 1.1064592e-38
0.072738096 -0.22286952 0.611 1.0695804e-38
0.073780954 -0.22250476 0.61000001 9.8660436e-39
0.074942857 -0.22250476 0.61000001 9.0387969e-39
0.07622952 -0.22286952 0.611 1.2542231e-38
0.077266671 -0.22250476 0.61000001 1.3188718e-38
0.078428566 -0.22250476 0.61000001 1.6876544e-38
0.079590477 -0.22250476 0.61000001 1.7521173e-38
0.085710481 -0.21739809 0.59600002 1.420287e-38
0.0867 -0.21703334 0.59500003 1.2451853e-38
0.087833337 -0.21703334 0.59500003 1.5494308e-38
0.089116193 -0.21739809 0.59600002 1.7797031e-38
0.090402856 -0.21776286 0.597 1.8995575e-38
0.091693342 -0.21812762 0.59800005 1.9179261e-38
0.092832386 -0.21812762 0.59800005 1.9640239e-38
0.094128579 -0.21849239 0.59900004 1.9456202e-38
0.095587619 -0.2192219 0.60100001 1.8165464e-38
0.09689334 -0.21958669 0.60200006 1.7614096e-38
0.098040007 -0.21958669 0.60200006 1.7060922e-38
0.099186674 -0.21958669 0.60200006 1.6784333e-38
-0.02463905 -0.22896287 0.63100004 1.7243872e-38
-0.023437144 -0.22896287 0.63100004 1.7520094e-38
-0.022200001 -0.22860001 0.63000005 1.5123008e-38
-0.020966666 -0.22823714 0.62900001 1.3556398e-38
-0.019737143 -0.22787429 0.62800002 1.1989072e-38
-0.018511429 -0.22751144 0.62700003 1.2541176e-38
-0.017261904 -0.2267857 0.625 1.2817763e-38
-0.016045714 -0.22642286 0.62400001 1.2725567e-38
-0.014785715 -0.2253343 0.62100005 1.2909958e-38
-0.013580953 -0.22497143 0.62 1.3095057e-38
-0.01238 -0.22460857 0.61900002 1.3095057e-38
-0.011200953 -0.22460857 0.61900002 1.3094349e-38
-0.010005714 -0.22424571 0.61800003 1.3278741e-38
-0.0088000009 -0.22352001 0.61600006 1.3462419e-38
-0.0076142857 -0.22315714 0.61500001 1.3462419e-38
-0.0064428574 -0.22315714 0.61500001 1.3279095e-38
-0.0052628573 -0.22279429 0.61400002 1.3463486e-38
-0.0040866667 -0.22243144 0.61300004 1.3556035e-38
-0.0029142858 -0.22206858 0.61200005 1.3556035e-38
-0.0017485716 -0.22206858 0.61200005 1.3647875e-38
-0.00058095239 -0.22134286 0.61000001 1.3740071e-38
0.00058095239 -0.22134286 0.61000001 1.3739719e-38
0.0017400001 -0.22098 0.60900003 1.3739719e-38
0.0028952383 -0.22061715 0.60800004 1.3924465e-38
0.0040466674 -0.2202543 0.60700005 1.3924465e-38
0.0052028573 -0.2202543 0.60700005 1.401666e-38
0.0063590482 -0.2202543 0.60700005 1.401666e-38
0.0075152386 -0.2202543 0.60700005 1.3924832e-38
0.0086571425 -0.21989143 0.60600001 1.4109223e-38
0.0098114284 -0.21989143 0.60600001 1.4201419e-38
0.010965714 -0.21989143 0.60600001 1.438581e-38
0.01212 -0.21989143 0.60600001 1.4385807e-38
0.013230477 -0.21916571 0.60400003 1.4385807e-38
0.014380952 -0.21916571 0.60400003 1.4385457e-38
0.015531429 -0.21916571 0.60400003 1.4662044e-38
0.016681906 -0.21916571 0.60400003 1.466239e-38
0.017832382 -0.21916571 0.60400003 1.466239e-38
0.018982857 -0.21916571 0.60400003 1.4662041e-38
0.020133335 -0.21916571 0.60400003 1.4846432e-38
0.021283811 -0.21916571 0.60400003 1.4938981e-38
0.022434287 -0.21916571 0.60400003 1.5031177e-38
0.023545716 -0.21880287 0.60300004 1.5214849e-38
0.024694288 -0.21880287 0.60300004 1.5307045e-38
0.025842858 -0.21880287 0.60300004 1.5399959e-38
0.026991429 -0.21880287 0.60300004 1.5492155e-38
0.028093336 -0.21844001 0.60200006 1.5400322e-38
0.029240003 -0.21844001 0.60200006 1.5400322e-38
0.030437144 -0.21880287 0.60300004 1.5399969e-38
0.031585716 -0.21880287 0.60300004 1.5399969e-38
0.032734286 -0.21880287 0.60300004 1.5491802e-38
0.03388286 -0.21880287 0.60300004 1.5491802e-38
0.035089526 -0.21916571 0.60400003 1.5583986e-38
0.03624 -0.21916571 0.60400003 1.5676182e-38
0.037328575 -0.21880287 0.60300004 1.5584353e-38
0.038477149 -0.21880287 0.60300004 1.5492157e-38
0.039625715 -0.21880287 0.60300004 1.5492518e-38
0.040841907 -0.21916571 0.60400003 1.5584713e-38
0.041992385 -0.21916571 0.60400003 1.5768023e-38
0.043285716 -0.21989143 0.60600001 1.5675827e-38
0.044439998 -0.21989143 0.60600001 1.5492506e-38
0.045594286 -0.21989143 0.60600001 1.5584702e-38
0.046825718 -0.2202543 0.60700005 1.5584713e-38
0.048060957 -0.22061715 0.60800004 1.5492518e-38
0.04921905 -0.22061715 0.60800004 1.5492518e-38
0.05046 -0.22098 0.60900003 1.5676909e-38
0.051620003 -0.22098 0.60900003 1.5860221e-38
0.052780002 -0.22098 0.60900003 1.5860221e-38
0.054028571 -0.22134286 0.61000001 1.5676906e-38
0.055190478 -0.22134286 0.61000001 1.5676906e-38
0.05644476 -0.2217057 0.611 1.5676906e-38
0.057797145 -0.22243144 0.61300004 1.558471e-38
0.058964763 -0.22243144 0.61300004 1.5492518e-38
0.060230475 -0.22279429 0.61400002 1.5400322e-38
0.0614 -0.22279429 0.61400002 1.558471e-38
0.06267143 -0.22315714 0.61500001 1.5676906e-38
0.063739046 -0.22279429 0.61400002 1.5217017e-38
0.064908572 -0.22279429 0.61400002 1.5032625e-38
0.066078097 -0.22279429 0.61400002 1.5123382e-38
0.067138098 -0.22243144 0.61300004 1.410923e-38
0.068194285 -0.22206858 0.61200005 1.4108831e-38
0.069360003 -0.22206858 0.61200005 1.2725896e-38
0.070640959 -0.22243144 0.61300004 1.1987638e-38
0.071691439 -0.22206858 0.61200005 1.0512507e-38
0.072857149 -0.22206858 0.61200005 1.0144797e-38
0.074022859 -0.22206858 0.61200005 9.2228406e-39
0.075188577 -0.22206858 0.61200005 8.8562105e-39
0.076479048 -0.22243144 0.61300004 1.4295753e-38
0.077266671 -0.22134286 0.61000001 1.5769477e-38
0.078428566 -0.22134286 0.61000001 1.7152412e-38
0.079720952 -0.2217057 0.611 1.7060192e-38
0.085710481 -0.21626286 0.59600002 1.6230434e-38
0.0867 -0.2159 0.59500003 1.3927728e-38
0.087833337 -0.2159 0.59500003 1.346675e-38
0.089116193 -0.21626286 0.59600002 1.6415166e-38
0.090402856 -0.21662571 0.597 1.8074687e-38
0.091693342 -0.21698858 0.59800005 1.8073265e-38
0.092832386 -0.21698858 0.59800005 1.7888874e-38
0.093971431 -0.21698858 0.59800005 1.7520821e-38
0.095587619 -0.21807714 0.60100001 1.733643e-38
0.096732378 -0.21807714 0.60100001 1.7336782e-38
0.097877145 -0.21807714 0.60100001 1.6783608e-38
0.099186674 -0.21844001 0.60200006 1.6507749e-38
0.10033335 -0.21844001 0.60200006 1.6599944e-38
-0.02463905 -0.22776097 0.63100004 1.7336063e-38
-0.023437144 -0.22776097 0.63100004 1.7612287e-38
-0.022200001 -0.22740002 0.63000005 1.5307396e-38
-0.021000002 -0.22740002 0.63000005 1.3464203e-38
-0.019737143 -0.2266781 0.62800002 1.2173464e-38
-0.018511429 -0.22631715 0.62700003 1.2449332e-38
-0.017261904 -0.22559524 0.625 1.2725919e-38
-0.01602 -0.22487333 0.62300003 1.2817763e-38
-0.014785715 -0.22415145 0.62100005 1.3094349e-38
-0.013580953 -0.22379047 0.62 1.3003224e-38
-0.0124 -0.22379047 0.62 1.3003224e-38
-0.011200953 -0.22342953 0.61900002 1.31869e-38
-0.010005714 -0.22306858 0.61800003 1.3371291e-38
-0.0088000009 -0.22234668 0.61600006 1.3370939e-38
-0.0076266672 -0.22234668 0.61600006 1.3370939e-38
-0.0064428574 -0.22198571 0.61500001 1.3371288e-38
-0.0052628573 -0.22162476 0.61400002 1.3555679e-38
-0.0040866667 -0.22126381 0.61300004 1.3556035e-38
-0.0029190476 -0.22126381 0.61300004 1.3648231e-38
-0.0017485716 -0.22090286 0.61200005 1.3647875e-38
-0.00058190478 -0.22054191 0.611 1.3740071e-38
0.00058095239 -0.22018096 0.61000001 1.3740073e-38
0.0017428572 -0.22018096 0.61000001 1.3740073e-38
0.0028952383 -0.21945907 0.60800004 1.3924465e-38
0.0040533338 -0.21945907 0.60800004 1.4108856e-38
0.0052028573 -0.21909812 0.60700005 1.401666e-38
0.0063590482 -0.21909812 0.60700005 1.401666e-38
0.0075152386 -0.21909812 0.60700005 1.4108501e-38
0.008671429 -0.21909812 0.60700005 1.4292893e-38
0.0098276203 -0.21909812 0.60700005 1.4201416e-38
0.010965714 -0.21873714 0.60600001 1.4385807e-38
0.01212 -0.21873714 0.60600001 1.4477284e-38
0.013274285 -0.21873714 0.60600001 1.4477284e-38
0.014428572 -0.21873714 0.60600001 1.4569479e-38
0.015531429 -0.21801525 0.60400003 1.4753871e-38
0.016681906 -0.21801525 0.60400003 1.4661675e-38
0.017832382 -0.21801525 0.60400003 1.4753871e-38
0.018982857 -0.21801525 0.60400003 1.4662397e-38
0.020133335 -0.21801525 0.60400003 1.4938984e-38
0.021283811 -0.21801525 0.60400003 1.4938981e-38
0.022434287 -0.21801525 0.60400003 1.5123372e-38
0.023545716 -0.2176543 0.60300004 1.5215568e-38
0.024694288 -0.2176543 0.60300004 1.5307763e-38
0.025842858 -0.2176543 0.60300004 1.5308126e-38
0.026991429 -0.2176543 0.60300004 1.5492518e-38
0.028140003 -0.2176543 0.60300004 1.5492164e-38
0.029288573 -0.2176543 0.60300004 1.5399969e-38
0.030437144 -0.2176543 0.60300004 1.5400325e-38
0.031585716 -0.2176543 0.60300004 1.5400325e-38
0.032734286 -0.2176543 0.60300004 1.5491802e-38
0.033939049 -0.21801525 0.60400003 1.5491802e-38
0.035089526 -0.21801525 0.60400003 1.5675463e-38
0.03624 -0.21801525 0.60400003 1.5767658e-38
0.037390478 -0.21801525 0.60400003 1.5583634e-38
0.038540956 -0.21801525 0.60400003 1.5583634e-38
0.03969143 -0.21801525 0.60400003 1.5492518e-38
0.040841907 -0.21801525 0.60400003 1.5584713e-38
0.042131428 -0.21873714 0.60600001 1.5584713e-38
0.043285716 -0.21873714 0.60600001 1.5584713e-38
0.044513334 -0.21909812 0.60700005 1.5400674e-38
0.045669526 -0.21909812 0.60700005 1.5492869e-38
0.046825718 -0.21909812 0.60700005 1.558436e-38
0.048060957 -0.21945907 0.60800004 1.5492164e-38
0.04921905 -0.21945907 0.60800004 1.549252e-38
0.05046 -0.21982001 0.60900003 1.5584716e-38
0.051620003 -0.21982001 0.60900003 1.5676556e-38
0.052780002 -0.21982001 0.60900003 1.558436e-38
0.054028571 -0.22018096 0.61000001 1.5768025e-38
0.055190478 -0.22018096 0.61000001 1.5768025e-38
0.05644476 -0.22054191 0.611 1.5584713e-38
0.057797145 -0.22126381 0.61300004 1.5584713e-38
0.058964763 -0.22126381 0.61300004 1.5309205e-38
0.060230475 -0.22162476 0.61400002 1.521701e-38
0.061500005 -0.22198571 0.61500001 1.5309205e-38
0.06267143 -0.22198571 0.61500001 1.5401401e-38
0.063842863 -0.22198571 0.61500001 1.5401045e-38
0.065014288 -0.22198571 0.61500001 1.4940067e-38
0.066078097 -0.22162476 0.61400002 1.4845719e-38
0.067247622 -0.22162476 0.61400002 1.4015958e-38
0.068305716 -0.22126381 0.61300004 1.3738629e-38
0.069473341 -0.22126381 0.61300004 1.2816672e-38
0.070640959 -0.22126381 0.61300004 1.2079473e-38
0.071691439 -0.22090286 0.61200005 1.0604343e-38
0.072857149 -0.22090286 0.61200005 1.0694715e-38
0.074143812 -0.22126381 0.61300004 1.0141542e-38
0.07531143 -0.22126381 0.61300004 9.4094011e-39
0.076479048 -0.22126381 0.61300004 1.6047486e-38
0.077646673 -0.22126381 0.61300004 1.6233329e-38
0.078557141 -0.22054191 0.611 1.6509916e-38
0.079720952 -0.22054191 0.611 1.696765e-38
0.085854284 -0.21548857 0.597 1.7152036e-38
0.086845718 -0.21512762 0.59600002 1.4941877e-38
0.087980956 -0.21512762 0.59600002 1.319016e-38
0.089265719 -0.21548857 0.597 1.4480141e-38
0.090402856 -0.21548857 0.597 1.7430401e-38
0.091693342 -0.21584953 0.59800005 1.7981439e-38
0.092832386 -0.21584953 0.59800005 1.7428266e-38
0.093971431 -0.21584953 0.59800005 1.696909e-38
0.095587619 -0.21693239 0.60100001 1.7061285e-38
0.096732378 -0.21693239 0.60100001 1.7060922e-38
0.097877145 -0.21693239 0.60100001 1.6599944e-38
0.099186674 -0.21729335 0.60200006 1.6691058e-38
-0.023474285 -0.2269181 0.63200003 1.7612287e-38
-0.022235239 -0.22655906 0.63100004 1.5307396e-38
-0.021033334 -0.22655906 0.63100004 1.3280894e-38
-0.019768571 -0.22584094 0.62900001 1.189796e-38
-0.018511429 -0.22512287 0.62700003 1.2173811e-38
-0.017261904 -0.22440475 0.625 1.2542594e-38
-0.01602 -0.22368667 0.62300003 1.2818117e-38
-0.014785715 -0.22296859 0.62100005 1.3279095e-38
-0.013580953 -0.22260952 0.62 1.3094701e-38
-0.0124 -0.22260952 0.62 1.3002506e-38
-0.011200953 -0.22225048 0.61900002 1.3094349e-38
-0.010005714 -0.22189143 0.61800003 1.3186545e-38
-0.008828572 -0.22189143 0.61800003 1.3278741e-38
-0.0076266672 -0.22117336 0.61600006 1.3278741e-38
-0.0064428574 -0.22081429 0.61500001 1.3279092e-38
-0.0052628573 -0.22045524 0.61400002 1.3555679e-38
-0.0040866667 -0.2200962 0.61300004 1.3556032e-38
-0.0029190476 -0.2200962 0.61300004 1.3556032e-38
-0.0017485716 -0.21973716 0.61200005 1.3739354e-38
-0.00058190478 -0.2193781 0.611 1.383155e-38
0.00058095239 -0.21901904 0.61000001 1.373971e-38
0.0017428572 -0.21901904 0.61000001 1.373971e-38
0.0029 -0.21866001 0.60900003 1.3831914e-38
0.0040533338 -0.21830097 0.60800004 1.4108501e-38
0.0052114287 -0.21830097 0.60800004 1.4016657e-38
0.0063695242 -0.21830097 0.60800004 1.3924462e-38
0.0075152386 -0.21794192 0.60700005 1.4108501e-38
0.008671429 -0.21794192 0.60700005 1.4385088e-38
0.0098276203 -0.21794192 0.60700005 1.4292893e-38
0.010983811 -0.21794192 0.60700005 1.4200697e-38
0.01214 -0.21794192 0.60700005 1.4477284e-38
0.013274285 -0.21758287 0.60600001 1.4477284e-38
0.014428572 -0.21758287 0.60600001 1.4477284e-38
0.015582857 -0.21758287 0.60600001 1.4661675e-38
0.016737143 -0.21758287 0.60600001 1.4661681e-38
0.017891428 -0.21758287 0.60600001 1.5030463e-38
0.018982857 -0.21686476 0.60400003 1.4754236e-38
0.020133335 -0.21686476 0.60400003 1.4938628e-38
0.021283811 -0.21686476 0.60400003 1.4938981e-38
0.022434287 -0.21686476 0.60400003 1.5031177e-38
0.023584763 -0.21686476 0.60400003 1.5123019e-38
0.02473524 -0.21686476 0.60400003 1.530741e-38
0.025842858 -0.21650574 0.60300004 1.5307766e-38
0.026991429 -0.21650574 0.60300004 1.5584353e-38
0.028140003 -0.21650574 0.60300004 1.5492164e-38
0.029288573 -0.21650574 0.60300004 1.5492164e-38
0.030487619 -0.21686476 0.60400003 1.5491804e-38
0.031638097 -0.21686476 0.60400003 1.5491804e-38
0.032788571 -0.21686476 0.60400003 1.5492164e-38
0.033939049 -0.21686476 0.60400003 1.5492164e-38
0.035089526 -0.21686476 0.60400003 1.5583631e-38
0.03624 -0.21686476 0.60400003 1.5583631e-38
0.037390478 -0.21686476 0.60400003 1.5583997e-38
0.038540956 -0.21686476 0.60400003 1.5583997e-38
0.03969143 -0.21686476 0.60400003 1.5676549e-38
0.040841907 -0.21686476 0.60400003 1.5676549e-38
0.042131428 -0.21758287 0.60600001 1.5676912e-38
0.043285716 -0.21758287 0.60600001 1.5676912e-38
0.044513334 -0.21794192 0.60700005 1.5492164e-38
0.045669526 -0.21794192 0.60700005 1.558436e-38
0.046825718 -0.21794192 0.60700005 1.549289e-38
0.048060957 -0.21830097 0.60800004 1.5400695e-38
0.04921905 -0.21830097 0.60800004 1.549252e-38
0.05046 -0.21866001 0.60900003 1.5584716e-38
0.051620003 -0.21866001 0.60900003 1.5676556e-38
0.052780002 -0.21866001 0.60900003 1.558436e-38
0.054028571 -0.21901904 0.61000001 1.5492164e-38
0.055190478 -0.21901904 0.61000001 1.5492164e-38
0.05644476 -0.2193781 0.611 1.5399609e-38
0.057797145 -0.2200962 0.61300004 1.5399609e-38
0.058964763 -0.2200962 0.61300004 1.5307766e-38
0.060230475 -0.22045524 0.61400002 1.5031179e-38
0.061500005 -0.22081429 0.61500001 1.5308478e-38
0.06267143 -0.22081429 0.61500001 1.5492869e-38
0.063842863 -0.22081429 0.61500001 1.5493222e-38
0.065014288 -0.22081429 0.61500001 1.4847853e-38
0.066185713 -0.22081429 0.61500001 1.475352e-38
0.067247622 -0.22045524 0.61400002 1.3739369e-38
0.068417147 -0.22045524 0.61400002 1.3738992e-38
0.069586664 -0.22045524 0.61400002 1.272484e-38
0.070756197 -0.22045524 0.61400002 1.1987277e-38
0.071925715 -0.22045524 0.61400002 1.0419952e-38
0.07309524 -0.22045524 0.61400002 9.9607532e-39
0.074264765 -0.22045524 0.61400002 1.1067101e-38
0.075434282 -0.22045524 0.61400002 1.0976774e-38
0.076603815 -0.22045524 0.61400002 1.6785088e-38
0.077773333 -0.22045524 0.61400002 1.7613366e-38
0.078942858 -0.22045524 0.61400002 1.7060192e-38
0.086845718 -0.21399239 0.59600002 1.6138979e-38
0.087980956 -0.21399239 0.59600002 1.3096523e-38
0.089265719 -0.21435143 0.597 1.3282366e-38
0.09055429 -0.21471049 0.59800005 1.6877995e-38
0.091693342 -0.21471049 0.59800005 1.7520824e-38
0.092987627 -0.21506953 0.59900004 1.6598868e-38
0.094128579 -0.21506953 0.59900004 1.6323364e-38
0.095587619 -0.21578763 0.60100001 1.6323364e-38
0.096732378 -0.21578763 0.60100001 1.64152e-38
0.097877145 -0.21578763 0.60100001 1.6323004e-38
0.099186674 -0.21614669 0.60200006 1.6323357e-38
-0.022270476 -0.2257143 0.63200003 1.5124087e-38
-0.021033334 -0.22535716 0.63100004 1.3280894e-38
-0.0198 -0.22500001 0.63000005 1.1805764e-38
-0.018540952 -0.22428572 0.62800002 1.226601e-38
-0.017317142 -0.22392859 0.62700003 1.2634792e-38
-0.016045714 -0.22285715 0.62400001 1.2725919e-38
-0.014809525 -0.22214288 0.62200004 1.3186897e-38
-0.013624762 -0.22214288 0.62200004 1.3186537e-38
-0.012420001 -0.22178572 0.62100005 1.3186537e-38
-0.011219047 -0.22142857 0.62 1.31869e-38
-0.010021905 -0.22107142 0.61900002 1.3279095e-38
-0.008828572 -0.2207143 0.61800003 1.3370572e-38
-0.0076514287 -0.2207143 0.61800003 1.3370572e-38
-0.0064428574 -0.21964285 0.61500001 1.3279095e-38
-0.0052628573 -0.21928573 0.61400002 1.3555682e-38
-0.0040933336 -0.21928573 0.61400002 1.34642e-38
-0.0029190476 -0.21892859 0.61300004 1.34642e-38
-0.0017485716 -0.21857144 0.61200005 1.3554612e-38
-0.00058190478 -0.21821429 0.611 1.3831198e-38
0.00058095239 -0.21785714 0.61000001 1.383119e-38
0.0017428572 -0.21785714 0.61000001 1.383119e-38
0.0029 -0.21750002 0.60900003 1.3923746e-38
0.0040533338 -0.21714287 0.60800004 1.4108137e-38
0.0052114287 -0.21714287 0.60800004 1.3924465e-38
0.0063695242 -0.21714287 0.60800004 1.4108856e-38
0.0075276191 -0.21714287 0.60800004 1.4201052e-38
0.008671429 -0.21678573 0.60700005 1.4293247e-38
0.0098276203 -0.21678573 0.60700005 1.4201052e-38
0.010983811 -0.21678573 0.60700005 1.4385443e-38
0.01214 -0.21678573 0.60700005 1.4477638e-38
0.013296192 -0.21678573 0.60700005 1.4477638e-38
0.014452382 -0.21678573 0.60700005 1.4477284e-38
0.015582857 -0.21642856 0.60600001 1.4753871e-38
0.016737143 -0.21642856 0.60600001 1.4662397e-38
0.017891428 -0.21642856 0.60600001 1.4754592e-38
0.019045714 -0.21642856 0.60600001 1.4662754e-38
0.020200001 -0.21642856 0.60600001 1.4847145e-38
0.021283811 -0.21571429 0.60400003 1.4938981e-38
0.022434287 -0.21571429 0.60400003 1.5031177e-38
0.023584763 -0.21571429 0.60400003 1.5122656e-38
0.02473524 -0.21571429 0.60400003 1.5399243e-38
0.025885716 -0.21571429 0.60400003 1.5215568e-38
0.027036192 -0.21571429 0.60400003 1.5492155e-38
0.028186668 -0.21571429 0.60400003 1.549252e-38
0.029337144 -0.21571429 0.60400003 1.5400325e-38
0.030487619 -0.21571429 0.60400003 1.5307766e-38
0.031638097 -0.21571429 0.60400003 1.5584353e-38
0.032788571 -0.21571429 0.60400003 1.5584353e-38
0.033939049 -0.21571429 0.60400003 1.5584353e-38
0.035205714 -0.21642856 0.60600001 1.5584346e-38
0.036359999 -0.21642856 0.60600001 1.5584346e-38
0.037390478 -0.21571429 0.60400003 1.5584353e-38
0.038540956 -0.21571429 0.60400003 1.5584353e-38
0.03969143 -0.21571429 0.60400003 1.5676546e-38
0.040977143 -0.21642856 0.60600001 1.5768742e-38
0.042131428 -0.21642856 0.60600001 1.5676909e-38
0.043285716 -0.21642856 0.60600001 1.5584713e-38
0.044513334 -0.21678573 0.60700005 1.5584716e-38
0.045669526 -0.21678573 0.60700005 1.5584716e-38
0.046902861 -0.21714287 0.60800004 1.558436e-38
0.048140001 -0.21750002 0.60900003 1.5492164e-38
0.049300004 -0.21750002 0.60900003 1.5492164e-38
0.05046 -0.21750002 0.60900003 1.5492164e-38
0.051704761 -0.21785714 0.61000001 1.5492164e-38
0.052866668 -0.21785714 0.61000001 1.5492164e-38
0.054028571 -0.21785714 0.61000001 1.5491802e-38
0.055190478 -0.21785714 0.61000001 1.5491802e-38
0.05644476 -0.21821429 0.611 1.530741e-38
0.057797145 -0.21892859 0.61300004 1.5215215e-38
0.058964763 -0.21892859 0.61300004 1.5307047e-38
0.060230475 -0.21928573 0.61400002 1.4938265e-38
0.061500005 -0.21964285 0.61500001 1.4846432e-38
0.06267143 -0.21964285 0.61500001 1.5030823e-38
0.063842863 -0.21964285 0.61500001 1.4938991e-38
0.065014288 -0.21964285 0.61500001 1.4846795e-38
0.066185713 -0.21964285 0.61500001 1.4478003e-38
0.067357138 -0.21964285 0.61500001 1.3832633e-38
0.068417147 -0.21928573 0.61400002 1.3923386e-38
0.069586664 -0.21928573 0.61400002 1.2448256e-38
0.070756197 -0.21928573 0.61400002 1.2078391e-38
0.07204286 -0.21964285 0.61500001 1.1064239e-38
0.073214285 -0.21964285 0.61500001 9.8696366e-39
0.074264765 -0.21928573 0.61400002 1.1621354e-38
0.075434282 -0.21928573 0.61400002 1.2913571e-38
0.076603815 -0.21928573 0.61400002 1.6877983e-38
0.077773333 -0.21928573 0.61400002 1.761265e-38
0.078942858 -0.21928573 0.61400002 1.6967281e-38
0.086991429 -0.21321428 0.597 1.6784335e-38
0.088128574 -0.21321428 0.597 1.4018467e-38
0.089415245 -0.21357144 0.59800005 1.3833698e-38
0.09055429 -0.21357144 0.59800005 1.696835e-38
0.091846667 -0.21392858 0.59900004 1.7243874e-38
0.092987627 -0.21392858 0.59900004 1.6782896e-38
0.094128579 -0.21392858 0.59900004 1.6783256e-38
0.095428571 -0.21428573 0.60000002 1.650667e-38
0.096732378 -0.21464285 0.60100001 1.6414477e-38
0.097877145 -0.21464285 0.60100001 1.6045694e-38
0.099021904 -0.21464285 0.60100001 1.6045328e-38
-0.022446666 -0.22628668 0.63700002 1.5308115e-38
-0.021066668 -0.22451048 0.63200003 1.3097226e-38
-0.019862859 -0.22451048 0.63200003 1.1622096e-38
-0.018540952 -0.22308953 0.62800002 1.2173464e-38
-0.017317142 -0.2227343 0.62700003 1.2726637e-38
-0.016045714 -0.22166857 0.62400001 1.291031e-38
-0.014857143 -0.22166857 0.62400001 1.3094701e-38
-0.013646667 -0.22131334 0.62300003 1.31869e-38
-0.012440001 -0.2209581 0.62200004 1.31869e-38
-0.011237144 -0.22060288 0.62100005 1.3279095e-38
-0.010021905 -0.21989238 0.61900002 1.3371291e-38
-0.0088428566 -0.21989238 0.61900002 1.3371291e-38
-0.0076514287 -0.21953715 0.61800003 1.3463486e-38
-0.0064533339 -0.21882668 0.61600006 1.3279106e-38
-0.0052714283 -0.21847144 0.61500001 1.3371302e-38
-0.0040933336 -0.21811619 0.61400002 1.3463132e-38
-0.0029190476 -0.21776097 0.61300004 1.3555328e-38
-0.0017514287 -0.21776097 0.61300004 1.3646457e-38
-0.00058285717 -0.21740572 0.61200005 1.3738652e-38
0.00058190478 -0.21705048 0.611 1.3739359e-38
0.0017428572 -0.21669523 0.61000001 1.3831554e-38
0.0029 -0.21634001 0.60900003 1.3831914e-38
0.0040600002 -0.21634001 0.60900003 1.392411e-38
0.0052114287 -0.21598478 0.60800004 1.3924465e-38
0.0063695242 -0.21598478 0.60800004 1.4201052e-38
0.0075276191 -0.21598478 0.60800004 1.4201049e-38
0.008671429 -0.21562955 0.60700005 1.4201049e-38
0.0098276203 -0.21562955 0.60700005 1.42007e-38
0.010983811 -0.21562955 0.60700005 1.4477287e-38
0.01214 -0.21562955 0.60700005 1.4477636e-38
0.013296192 -0.21562955 0.60700005 1.438544e-38
0.014452382 -0.21562955 0.60700005 1.4477287e-38
0.015608573 -0.21562955 0.60700005 1.4753874e-38
0.016764762 -0.21562955 0.60700005 1.4662394e-38
0.017891428 -0.21527429 0.60600001 1.4662394e-38
0.019045714 -0.21527429 0.60600001 1.4755304e-38
0.020200001 -0.21527429 0.60600001 1.48475e-38
0.021354286 -0.21527429 0.60600001 1.4847145e-38
0.022508573 -0.21527429 0.60600001 1.4939341e-38
0.023584763 -0.21456382 0.60400003 1.5031177e-38
0.02473524 -0.21456382 0.60400003 1.5123372e-38
0.025885716 -0.21456382 0.60400003 1.5492141e-38
0.027036192 -0.21456382 0.60400003 1.5584336e-38
0.028186668 -0.21456382 0.60400003 1.5399955e-38
0.029337144 -0.21456382 0.60400003 1.5399955e-38
0.030487619 -0.21456382 0.60400003 1.5399962e-38
0.031638097 -0.21456382 0.60400003 1.5492157e-38
0.032897141 -0.21527429 0.60600001 1.5492157e-38
0.034051429 -0.21527429 0.60600001 1.5492157e-38
0.035205714 -0.21527429 0.60600001 1.549179e-38
0.036359999 -0.21527429 0.60600001 1.5583986e-38
0.037514284 -0.21527429 0.60600001 1.5492515e-38
0.038668573 -0.21527429 0.60600001 1.5400319e-38
0.039822854 -0.21527429 0.60600001 1.5400674e-38
0.040977143 -0.21527429 0.60600001 1.5492869e-38
0.042131428 -0.21527429 0.60600001 1.5492518e-38
0.043357149 -0.21562955 0.60700005 1.5492518e-38
0.04458667 -0.21598478 0.60800004 1.5492518e-38
0.045744762 -0.21598478 0.60800004 1.5584713e-38
0.046902861 -0.21598478 0.60800004 1.5584716e-38
0.048140001 -0.21634001 0.60900003 1.549252e-38
0.049300004 -0.21634001 0.60900003 1.549252e-38
0.05046 -0.21634001 0.60900003 1.549252e-38
0.051704761 -0.21669523 0.61000001 1.5492518e-38
0.052866668 -0.21669523 0.61000001 1.5400322e-38
0.054028571 -0.21669523 0.61000001 1.5491804e-38
0.055190478 -0.21669523 0.61000001 1.5399609e-38
0.05644476 -0.21705048 0.611 1.5215578e-38
0.057797145 -0.21776097 0.61300004 1.5123382e-38
0.058964763 -0.21776097 0.61300004 1.5123372e-38
0.060230475 -0.21811619 0.61400002 1.475459e-38
0.061500005 -0.21847144 0.61500001 1.4569492e-38
0.06267143 -0.21847144 0.61500001 1.4385101e-38
0.063842863 -0.21847144 0.61500001 1.4293621e-38
0.065014288 -0.21847144 0.61500001 1.4293621e-38
0.066293344 -0.21882668 0.61600006 1.4385796e-38
0.067466669 -0.21882668 0.61600006 1.4017013e-38
0.06852857 -0.21847144 0.61500001 1.373971e-38
0.069699995 -0.21847144 0.61500001 1.2172385e-38
0.070986666 -0.21882668 0.61600006 1.1711051e-38
0.07204286 -0.21847144 0.61500001 1.1250072e-38
0.073214285 -0.21847144 0.61500001 1.0423539e-38
0.074385718 -0.21847144 0.61500001 1.3281604e-38
0.075434282 -0.21811619 0.61400002 1.3649729e-38
0.076603815 -0.21811619 0.61400002 1.678437e-38
0.077773333 -0.21811619 0.61400002 1.7244586e-38
0.086991429 -0.21207714 0.597 1.7059832e-38
0.088128574 -0.21207714 0.597 1.4662746e-38
0.089415245 -0.2124324 0.59800005 1.3926268e-38
0.09055429 -0.2124324 0.59800005 1.6138963e-38
0.091846667 -0.21278763 0.59900004 1.6506307e-38
0.092987627 -0.21278763 0.59900004 1.6321915e-38
0.094128579 -0.21278763 0.59900004 1.6230085e-38
0.095428571 -0.21314286 0.60000002 1.6230085e-38
0.096732378 -0.2134981 0.60100001 1.613789e-38
0.09771429 -0.21314286 0.60000002 1.5953499e-38
0.098857142 -0.21314286 0.60000002 1.5677632e-38
-0.022446666 -0.22507334 0.63700002 1.521628e-38
-0.021233333 -0.22507334 0.63700002 1.3188703e-38
-0.020019999 -0.22507334 0.63700002 1.1713573e-38
-0.018570477 -0.22224668 0.62900001 1.2265659e-38
-0.017344762 -0.22189334 0.62800002 1.2726637e-38
-0.016122857 -0.22154002 0.62700003 1.3002508e-38
-0.014880952 -0.22083333 0.625 1.3279095e-38
-0.013646667 -0.22012667 0.62300003 1.309542e-38
-0.012440001 -0.21977334 0.62200004 1.3279811e-38
-0.011237144 -0.21942002 0.62100005 1.3279811e-38
-0.010038096 -0.21906666 0.62 1.3279811e-38
-0.0088428566 -0.21871333 0.61900002 1.3463486e-38
-0.0076514287 -0.21836001 0.61800003 1.3371291e-38
-0.0064533339 -0.21765335 0.61600006 1.3095068e-38
-0.0052714283 -0.21730001 0.61500001 1.327946e-38
-0.0041 -0.21730001 0.61500001 1.3279455e-38
-0.0029190476 -0.21659335 0.61300004 1.3463847e-38
-0.0017514287 -0.21659335 0.61300004 1.3739003e-38
-0.00058285717 -0.21624002 0.61200005 1.3646807e-38
0.00058190478 -0.21588667 0.611 1.3831554e-38
0.0017428572 -0.21553335 0.61000001 1.4015946e-38
0.002904762 -0.21553335 0.61000001 1.3832629e-38
0.0040600002 -0.21518001 0.60900003 1.3832629e-38
0.0052200002 -0.21518001 0.60900003 1.4016657e-38
0.0063800002 -0.21518001 0.60900003 1.4108853e-38
0.0075276191 -0.21482667 0.60800004 1.4201049e-38
0.0086857146 -0.21482667 0.60800004 1.4201049e-38
0.0098438095 -0.21482667 0.60800004 1.4108501e-38
0.011001905 -0.21482667 0.60800004 1.4477284e-38
0.01216 -0.21482667 0.60800004 1.438544e-38
0.013296192 -0.21447335 0.60700005 1.4477636e-38
0.014452382 -0.21447335 0.60700005 1.4477287e-38
0.015608573 -0.21447335 0.60700005 1.4753874e-38
0.016764762 -0.21447335 0.60700005 1.466239e-38
0.017891428 -0.21412 0.60600001 1.4754585e-38
0.019045714 -0.21412 0.60600001 1.4846785e-38
0.020200001 -0.21412 0.60600001 1.4938981e-38
0.021354286 -0.21412 0.60600001 1.4847145e-38
0.022508573 -0.21412 0.60600001 1.5031537e-38
0.023662858 -0.21412 0.60600001 1.5214849e-38
0.024817143 -0.21412 0.60600001 1.5307045e-38
0.025885716 -0.21341334 0.60400003 1.5675819e-38
0.027036192 -0.21341334 0.60400003 1.5675819e-38
0.028186668 -0.21341334 0.60400003 1.5399595e-38
0.029337144 -0.21341334 0.60400003 1.5583986e-38
0.030487619 -0.21341334 0.60400003 1.5583631e-38
0.031638097 -0.21341334 0.60400003 1.5583631e-38
0.032897141 -0.21412 0.60600001 1.5492155e-38
0.034051429 -0.21412 0.60600001 1.5492155e-38
0.035205714 -0.21412 0.60600001 1.5492506e-38
0.036420003 -0.21447335 0.60700005 1.5584702e-38
0.037514284 -0.21412 0.60600001 1.558471e-38
0.038668573 -0.21412 0.60600001 1.5492515e-38
0.039822854 -0.21412 0.60600001 1.5309198e-38
0.041044764 -0.21447335 0.60700005 1.5309198e-38
0.042200956 -0.21447335 0.60700005 1.5309205e-38
0.043428574 -0.21482667 0.60800004 1.5309205e-38
0.04458667 -0.21482667 0.60800004 1.5492515e-38
0.045744762 -0.21482667 0.60800004 1.558471e-38
0.046980001 -0.21518001 0.60900003 1.5492164e-38
0.048140001 -0.21518001 0.60900003 1.5492164e-38
0.049300004 -0.21518001 0.60900003 1.549252e-38
0.050542857 -0.21553335 0.61000001 1.549252e-38
0.051704761 -0.21553335 0.61000001 1.5584346e-38
0.052866668 -0.21553335 0.61000001 1.5584346e-38
0.054028571 -0.21553335 0.61000001 1.5400325e-38
0.055190478 -0.21553335 0.61000001 1.5400325e-38
0.05644476 -0.21588667 0.611 1.5215934e-38
0.057797145 -0.21659335 0.61300004 1.5215934e-38
0.059060954 -0.21694668 0.61400002 1.494042e-38
0.060328573 -0.21730001 0.61500001 1.4295051e-38
0.061600007 -0.21765335 0.61600006 1.4661325e-38
0.062773332 -0.21765335 0.61600006 1.4384738e-38
0.063946672 -0.21765335 0.61600006 1.4201419e-38
0.065120004 -0.21765335 0.61600006 1.4293614e-38
0.066293344 -0.21765335 0.61600006 1.42936e-38
0.067685723 -0.21836001 0.61800003 1.3832622e-38
0.068640009 -0.21765335 0.61600006 1.3187267e-38
0.069813341 -0.21765335 0.61600006 1.2173115e-38
0.070986666 -0.21765335 0.61600006 1.2079833e-38
0.072160006 -0.21765335 0.61600006 1.1065681e-38
0.073214285 -0.21730001 0.61500001 1.0514656e-38
0.074385718 -0.21730001 0.61500001 1.4571263e-38
0.075557142 -0.21730001 0.61500001 1.503371e-38
0.086991429 -0.21094 0.597 1.7428615e-38
0.088128574 -0.21094 0.597 1.5123724e-38
0.089415245 -0.21129335 0.59800005 1.3833698e-38
0.09055429 -0.21129335 0.59800005 1.5954198e-38
0.091846667 -0.21164668 0.59900004 1.6414474e-38
0.09314286 -0.212 0.60000002 1.6230083e-38
0.094285719 -0.212 0.60000002 1.6230083e-38
0.095587619 -0.21235333 0.60100001 1.6230083e-38
0.096732378 -0.21235333 0.60100001 1.5862379e-38
0.09771429 -0.212 0.60000002 1.5309205e-38
0.098857142 -0.212 0.60000002 1.5400674e-38
-0.022446666 -0.22386001 0.63700002 1.5399955e-38
-0.021200001 -0.2235086 0.63600004 1.3188703e-38
-0.019925715 -0.22280571 0.634 1.1621377e-38
-0.018570477 -0.22104856 0.62900001 1.226531e-38
-0.017344762 -0.22069715 0.62800002 1.2726289e-38
-0.016122857 -0.22034572 0.62700003 1.2910313e-38
-0.014880952 -0.21964285 0.625 1.31869e-38
-0.013668572 -0.21929143 0.62400001 1.3186897e-38
-0.01246 -0.21894 0.62300003 1.3279092e-38
-0.011237144 -0.21823716 0.62100005 1.3371288e-38
-0.010038096 -0.21788572 0.62 1.3371288e-38
-0.0088428566 -0.21753429 0.61900002 1.3371291e-38
-0.0076514287 -0.21718286 0.61800003 1.3371291e-38
-0.0064742859 -0.21718286 0.61800003 1.3279095e-38
-0.0052714283 -0.21612857 0.61500001 1.3371291e-38
-0.0041 -0.21612857 0.61500001 1.3463484e-38
-0.0029190476 -0.21542571 0.61300004 1.3555679e-38
-0.0017514287 -0.21542571 0.61300004 1.3647163e-38
-0.00058285717 -0.2150743 0.61200005 1.3462772e-38
0.00058190478 -0.21472286 0.611 1.355533e-38
0.0017457142 -0.21472286 0.611 1.3924113e-38
0.002904762 -0.21437144 0.61000001 1.3832269e-38
0.0040600002 -0.21402 0.60900003 1.4108856e-38
0.0052200002 -0.21402 0.60900003 1.4016657e-38
0.0063800002 -0.21402 0.60900003 1.3924462e-38
0.0075400001 -0.21402 0.60900003 1.4200689e-38
0.0086857146 -0.21366858 0.60800004 1.4292884e-38
0.0098438095 -0.21366858 0.60800004 1.4200697e-38
0.011001905 -0.21366858 0.60800004 1.4385088e-38
0.01216 -0.21366858 0.60800004 1.4477636e-38
0.013318096 -0.21366858 0.60800004 1.4938614e-38
0.014476191 -0.21366858 0.60800004 1.4569834e-38
0.015634285 -0.21366858 0.60800004 1.466203e-38
0.016764762 -0.21331716 0.60700005 1.466239e-38
0.017920954 -0.21331716 0.60700005 1.4754585e-38
0.019077145 -0.21331716 0.60700005 1.4754585e-38
0.020200001 -0.21296571 0.60600001 1.4846781e-38
0.021354286 -0.21296571 0.60600001 1.4847148e-38
0.022508573 -0.21296571 0.60600001 1.5031539e-38
0.023662858 -0.21296571 0.60600001 1.5214849e-38
0.024817143 -0.21296571 0.60600001 1.5122653e-38
0.025971429 -0.21296571 0.60600001 1.5215568e-38
0.027125714 -0.21296571 0.60600001 1.5399959e-38
0.028279999 -0.21296571 0.60600001 1.5307759e-38
0.029434286 -0.21296571 0.60600001 1.5399955e-38
0.030588571 -0.21296571 0.60600001 1.549215e-38
0.03174286 -0.21296571 0.60600001 1.549215e-38
0.032897141 -0.21296571 0.60600001 1.5400322e-38
0.034107622 -0.21331716 0.60700005 1.5492518e-38
0.035263814 -0.21331716 0.60700005 1.5676542e-38
0.036420003 -0.21331716 0.60700005 1.5676542e-38
0.037576191 -0.21331716 0.60700005 1.5492515e-38
0.038732383 -0.21331716 0.60700005 1.5492515e-38
0.039888576 -0.21331716 0.60700005 1.5492515e-38
0.041044764 -0.21331716 0.60700005 1.558471e-38
0.042200956 -0.21331716 0.60700005 1.5492515e-38
0.043428574 -0.21366858 0.60800004 1.5400319e-38
